-0.568683 -0.141912 -0.618343
  0.170877 0.00728652  -0.316511
-0.618254  0.106981 -0.150626
0.0718397 -0.203232  0.656432
0.0374212 -0.118238 -0.494495
-0.669209  0.109412 -0.532143
 0.191259 -0.380864  0.789484
 0.291541   0.89602 0.0892196
0.333256   1.1781 0.400459
-0.0867143    1.14874   0.606602
-0.0191744    0.17459  -0.980493
 0.186638  0.614115 -0.703542
0.451678  -1.1889 0.287256
0.359433 0.182132 0.828063
0.298087 0.800534 0.130899
  0.43627 -0.806476  0.107071
  0.225403   -1.36114 -0.0814822
0.346841  1.15359 0.619692
-0.144103  0.942159  0.685001
 0.307055  0.678928 0.0109353
0.431015 0.907324 0.139256
-0.0286301  -0.536319  -0.558199
 0.283387 -0.212998 -0.402174
-0.252771 -0.190629 -0.741429
 -0.301126  -0.911047 -0.0470028
-0.576407 -0.230511 0.0430602
-0.139251   -1.1275  -0.24373
0.562491 0.774637 0.581693
 0.266348 -0.293604 -0.337613
  0.1019  1.36781 0.458607
 0.340306 -0.354398 -0.387736
-0.649709  0.860835  0.164462
 0.404071 -0.690096  0.106718
 0.233274  -1.51507 -0.197893
0.219251 -0.29015  0.81799
-0.338522 -0.154883   0.80707
 -0.52201 -0.388836  0.153738
-0.0212521  -0.745463  -0.466345
 0.220734  0.714686 -0.112847
 0.360179  -1.01544 -0.630513
  0.32847  -0.26214 -0.434652
-0.163472  0.585958 -0.703676
-0.775554  0.344021 -0.253181
-0.424641   1.12135  0.345887
 0.229044 -0.783829 -0.612311
 0.536677 -0.316462  0.158632
0.540899 -1.11752 0.269004
0.355624 0.287847 0.291544
 0.624945 -0.922094  0.231657
 -0.660346  0.0429588 -0.0688428
 0.284211  -1.07565 -0.625382
0.0947531 -0.219289 -0.567878
 0.468865 -0.447571 0.0954323
-0.43251 0.195984 -0.50389
-0.194427 -0.871542  -0.22994
-0.768887     0.418  0.265182
-0.0981983  -0.529791   0.440236
-0.422853 0.0083169  0.821329
  0.41031  0.940354 -0.236571
-0.450377 0.0417057  0.466619
   0.34922   0.544233 -0.0311035
-0.270897   0.62724  -0.58871
-0.0529539    1.36891  -0.548422
 0.505284  -1.17169 0.0631532
 0.316146  0.651758 -0.344736
-0.237405  0.805315  0.678083
  0.12822 -0.135029 0.0035929
-0.140206   1.03548 -0.622086
0.0275479 -0.148687  0.076755
-0.505715 -0.142402 -0.487699
-0.0593421   -0.45576   0.573298
  0.46469  0.862386 -0.258438
-0.209712 0.0297562  0.741094
-0.295342  0.226773  0.748003
-0.721246  0.453003  0.365246
-0.214379   1.11388 -0.515815
 0.274243  0.542987 -0.253041
 -0.24059 -0.436207  0.307454
 0.240356 -0.238005  0.598665
 0.302776 -0.900318 -0.622227
-0.509696 -0.199733 -0.484248
-0.542623    1.0419  0.210788
  0.373782   -1.18496 0.00964036
0.00163088   0.441315  -0.718809
0.294247 0.719066 0.143673
-0.717159  0.126091 -0.517001
  0.425281   -1.36119 -0.0126397
 0.375109 -0.327597  0.817062
0.628192  -1.2603 0.220215
-0.0870526   0.173987    0.64577
-0.349064  0.994353 -0.490778
0.407852  1.05151   0.6401
 0.413755  -1.18083 -0.466411
-0.106452 -0.338526  0.695328
-0.033897   0.44446 -0.922889
 0.451639 -0.110458   0.79744
 0.291302 -0.586699  -0.39469
 -0.579481 -0.0931085     0.5605
-0.352789 -0.330022 -0.273886
 0.884198  -1.28304 -0.791039
 0.313227 -0.264453 -0.396748
0.117179 0.955789  0.70821
0.147089 0.812928 0.735785
-0.471912   0.71859 -0.450514
-0.685818  0.561331  0.374535
0.292749 0.659315  0.75784
-0.859348 -0.057668  0.255847
 0.180832  -1.42991 -0.131442
-0.159377  0.344193  0.688542
-0.223635 -0.561087 -0.415861
-0.0300701   -1.13068   0.163358
-0.629623 -0.115997  0.642726
0.0439395  -1.28141 -0.438408
-0.474615  0.397672   0.66143
-0.244013  0.522568  -0.60078
0.334486 0.219476 0.834035
-0.352975  0.130847  0.779076
 0.390325 -0.121736  0.142561
-0.141986 0.0561118 -0.965281
0.163172 0.308577 0.570469
 0.248891  -1.36492 -0.588016
 0.430295 -0.752493 -0.632457
 0.187036 -0.599779 -0.285254
  0.262559   -1.10911 -0.0415488
-0.813411  0.327016 -0.122312
 -0.340435 -0.0397319  -0.419484
-0.812773  0.395784 0.0705593
 0.284853  0.893927 -0.588798
-0.0977282   0.928988   0.698383
-0.540299  0.202292  0.654961
 0.205792 -0.249081  0.662924
 0.215332  0.632102 -0.658387
-0.0253078  -0.878004   0.234403
-0.0335075   0.087858  -0.985995
 -0.915329 -0.0520826  -0.175266
-0.427268  0.792306  0.557477
 0.446754  -1.43051 -0.663408
 0.310983 -0.436721 -0.608965
 -0.23582   1.36111 -0.220177
0.530105 0.562024 0.582341
 0.273037 -0.148413  0.104151
 0.463424  -1.59527 -0.231551
 0.192307 -0.513331  0.529348
 0.323497 -0.646137 -0.412565
 0.219719  0.758153 -0.136943
0.593802 -1.00625  0.21928
 0.238657  0.797566 0.0348573
0.192233  0.88588  0.73616
-0.177456   1.38675 -0.226877
-0.333883 -0.587053 -0.140656
-0.0808797  -0.184623    0.25664
 0.371686 -0.990989 0.0877284
-0.108611  0.498545 -0.865642
0.493582 0.627404 0.316559
 0.306621 -0.977711 0.0717449
0.0703058  0.205126 -0.444793
0.405004 0.752867 0.104233
-0.405664  0.970348  0.489997
 -0.24611  0.656189 -0.606059
-0.637121  0.341444   0.51978
 -0.213201   -1.03311 -0.0996941
 0.48533   0.5378 0.431467
0.0230035  0.394035  -0.90885
-0.102279  0.458838 -0.777909
 -0.925954  0.0979139 -0.0879708
 -0.289045  -0.966615 -0.0489767
-0.0219986  -0.484701   0.548097
-0.505724  0.366839 -0.466461
-0.0592868   -1.02446  -0.411264
0.147601  1.27653  0.55274
0.269533  1.26989 0.367371
0.541641 0.804014 0.159977
0.267626 -1.13643 0.287227
 0.208277 -0.148433 -0.269683
-0.929534 0.0100076 0.0689124
-0.0847328  -0.024006    0.64977
  0.221454   0.798808 -0.0087377
0.00990766   -1.12502   0.192838
-0.540504  -0.18573  -0.57265
0.296076 0.595159 -0.39601
 0.302722  0.674552 -0.418026
0.00833479  -0.184693  -0.183848
0.241827 0.581929 0.764907
-0.029444  0.312905 -0.870259
 0.364167  -1.38598 -0.420114
 -0.767053 -0.0255216  -0.523877
 0.466176 -0.466008  -0.53274
0.339933 0.185566 0.906957
 -0.15575  0.238294 -0.462241
 -0.449596  -0.424848 0.00599395
-0.783616 -0.202781   0.14219
 0.219487  -1.23029 -0.154987
0.238538  1.28912 0.589057
-0.746817  0.594157 -0.129354
-0.176728  0.684483 -0.653716
 0.311749 -0.260531 -0.515254
 0.441552  -1.22511 0.0259431
0.201792 0.333348  0.57982
-0.393393 -0.367582  -0.48005
-0.873468 0.0233514 -0.342743
-0.852866  0.210702 -0.134692
 0.234064 -0.752382 0.0129736
-0.256026  0.944796  0.632098
0.337377 0.942058 0.184386
 -0.336626  0.0576232 -0.0796846
 0.532383  -1.28486 -0.734569
-0.676326  0.506699  0.412257
-0.521881  0.872932  0.423788
 0.29294  1.24611 0.521252
 0.136777   1.21629 -0.524383
0.947572  -1.4108 0.173464
-0.149964 -0.257594  0.565363
0.00830694   -1.18679   0.152579
 0.134427  -1.38557 -0.418866
-0.615214  0.243182   0.57274
-0.0602586    -1.0936   0.158874
-0.391656 -0.446654 -0.114692
0.0141676 -0.977442  0.237002
-0.758284  0.152208  0.438919
 0.0839792    1.48134 -0.0949111
-0.261534  0.621045  0.686048
 -0.42739  0.279541 -0.486636
 -0.739857 -0.0622671  -0.442805
  -0.5458  -0.10679 -0.493277
 0.214347 -0.118888  0.138157
-0.396784 -0.326835  -0.35978
-0.452541 -0.573541 0.0780038
 0.444098  -1.70285 -0.305693
  0.18965 -0.534813 -0.285708
-0.212519 -0.148163 -0.631279
  0.191185   0.336859 -0.0364201
0.102507  1.51079  0.26438
 0.221544   0.83967 -0.192458
0.277397  -1.1955 0.282961
 -0.756774   0.585184 -0.0663083
-0.573533 0.0212784 -0.612783
-0.119949  -1.00977  0.148967
-0.544159  0.462742  0.584176
-0.405122   1.19303  0.261854
 0.26545   1.2151 0.624618
-0.130464   0.01436   0.33787
 0.347895 -0.285737  0.761926
-0.255105 -0.121834  0.166273
0.466368 0.354128 0.729156
-0.299403   1.32856  0.102632
 0.629372 -0.459172  0.259322
 0.476316 -0.941142  0.294913
 0.382615  -1.62028 -0.398916
-0.0681447    1.17952   -0.65505
0.469435 0.111488 0.868814
0.844078 -1.32442 0.199401
-0.278394   1.01368  0.582972
 0.482983  -1.24373 -0.575875
0.166149 0.151675 0.195694
 -0.798001 -0.0450871  -0.444908
-0.0644438   0.240753  -0.884548
-0.254718 -0.439894 -0.530798
 0.428409  0.996865 0.0551167
-0.242863 -0.159199 -0.119809
 0.498485  -1.59282 -0.148449
  0.48914 0.0996526  0.841045
 0.469162  -1.57071 -0.180654
 0.52583 -1.32199 0.267567
-0.721277  0.697416 -0.146899
-0.777915  0.467861 -0.106399
0.527502  0.79393 0.403955
-0.524354    1.0957  0.149145
 -0.18956 0.0779975  0.490599
 0.673562 -0.702329  0.259564
  0.260798   0.406426 -0.0745236
 0.263638 -0.480823  0.581418
 -0.831707 -0.0584368   0.371541
 0.361642   1.00804 -0.176575
 -0.301104 -0.0236161   0.804183
 0.257149 -0.248062 -0.299052
-0.567639  0.872474 -0.290305
 0.263205  -1.44035 0.0902964
 0.192709 -0.664324 -0.249812
0.411268 0.719184 0.664332
-0.791507 -0.113495  0.436496
 0.230093 -0.374599 -0.327108
 0.231796 -0.386827 -0.175743
  0.326301    -1.3311 -0.0697205
0.615467 -1.03738 0.137128
0.0596358 -0.557104  0.472241
-0.323476   1.06019 -0.482602
 0.277218 -0.409678 0.0149862
 0.561292 -0.608924  0.116522
-0.344014   1.12557  0.442684
-0.113175  0.424947 -0.894318
 0.118055   1.18976 -0.629853
-0.0600413  -0.493466  -0.576463
  0.37883 -0.952967  0.290716
-0.854151  0.127813 -0.269231
 -0.11942   0.53973 -0.803722
  0.166523   -1.16223 -0.0286701
 0.171216 -0.458011  0.631533
 0.240301  0.917415 -0.101906
 0.079805 -0.369301  0.770441
-0.448242  0.355975  0.690631
-0.566204  0.837576 -0.312213
0.0863858 -0.299345 -0.647513
 0.144623  0.387744 -0.323117
 0.353604 -0.497039  0.477052
-0.102552   1.08423  0.639341
0.520987 0.865719 0.203247
 0.230921   -1.0119 -0.353966
 0.241069 -0.417808  0.684955
 0.334691 -0.434157 -0.388697
0.403723 0.466173 0.397426
 0.418726 -0.738131  0.108013
0.371135  0.88798 0.210715
 -0.214373    1.41057 -0.0744514
 -0.598704 -0.0677217   0.459011
-0.532297  0.630152 -0.408656
 0.376051  -1.24906 -0.655535
  -0.41181   0.055784 -0.0429058
  0.26145 -0.277661 -0.151353
-0.525507   0.60829  0.565082
-0.0456498  -0.243132   0.809762
  0.22825  -1.17036 -0.191215
0.472554 0.573547 0.277974
-0.0849459   0.428504  -0.708451
 0.190721  -1.38978 -0.494394
-0.697608  0.644708 -0.245588
 -0.473049     1.1883 -0.0316745
 0.239656  0.954897 -0.169616
0.0150287   0.37214 -0.869822
 0.26921  1.31986 0.132665
 0.212319 -0.633092 -0.350151
-0.24594 0.199986 0.735155
0.145037  1.46784 0.213902
 0.457485  -1.21918 -0.670103
 0.270759  0.947179 0.0421425
 -0.537515 -0.0189223   0.448992
0.0660109  0.232641 -0.197388
 -0.48744  0.825749 -0.415053
 0.399993   1.04738 -0.121872
0.0522162  -1.33411 -0.370086
 0.199533   1.40597 0.0756805
-0.230563  -0.34155  0.255173
0.232707 0.365683 0.655475
 0.173573  0.666032 -0.801044
    0.217  0.702796 -0.696819
 0.538678 -0.842396   0.29111
-0.121572   0.37407 -0.567051
 -0.62258 0.0574903 -0.581936
-0.48788  1.05757 -0.29971
-0.392362 -0.348727 -0.520942
0.349575  1.20271 0.250386
0.0240762  0.100367  0.539105
  0.175878    -1.1704 -0.0840768
-0.597168   0.93498 -0.154685
 0.221984  -1.06472 -0.602351
 0.225932  -1.10704 -0.288849
 -0.815991 -0.0490221   -0.25286
-0.793479  0.133158  0.385849
0.316488 0.190597  0.32832
  0.307568   0.467775 -0.0518324
  -0.873777 -0.00933903    0.252226
  0.30237 -0.193359  0.422104
-0.114291 -0.970867  -0.36039
 0.309186 -0.580856  -0.62797
 -0.15351  0.165991 -0.444483
-0.055071 -0.618774  0.368213
-0.0157684    1.09545   0.649061
 0.374887  -1.45344 -0.463823
-0.120443 -0.689549  0.241118
0.0838841  0.631716  0.736186
-0.0510114   -1.06161  -0.161637
-0.548536   0.56928 -0.404883
 0.524629  -1.63872 -0.090717
-0.554412 -0.117164  0.670502
 0.204106  0.820263 -0.662726
 0.377142    1.0362 -0.234941
  0.400723    1.05154 -0.0759115
-0.0495589    1.52034 -0.0156003
  0.11089 -0.170035  0.580377
0.681392 -0.85177 0.257472
0.212791  1.33924 0.434438
-0.210384  -0.30213 -0.818462
 0.413045  -1.11891 -0.470762
  0.143766 -0.0122832   0.437324
0.366012  1.15145 0.291487
 -0.489866   0.118319 -0.0827769
-0.0110924   -1.00638 -0.0090256
-0.370353  0.293784  0.741373
0.631359 -1.45104 0.117443
-0.0119051   0.671308   0.735202
0.332261 -1.20815 0.287608
  0.31383 -0.299598 0.0278477
 0.898044   -1.3874 0.0565584
0.0398867   1.48203 -0.202666
-0.398421  0.512269  0.670175
-0.00697631    0.732505    0.735701
0.522482 0.882019  0.60369
0.807099 -1.28564 0.176515
 0.342052  0.868678 -0.378203
-0.0417479    1.16118   0.602694
 0.0925652   -1.06551 -0.0801807
 0.293742 -0.618644  0.403901
-0.0937185  -0.712863  -0.440555
0.660543 -1.13678  0.20011
-0.326519  0.528683  0.677506
-0.509119  0.503485  0.605419
-0.193653  0.967368  0.655526
 -0.364535 -0.0843243  -0.442427
0.0094844 -0.232178  0.748212
 0.207926 0.0956631  0.209129
 0.194015  0.934102 -0.713359
0.173459 0.354913 0.626194
-0.354793 -0.112159  0.838643
-0.374372  -0.10035 -0.649064
 0.287454   1.29063 0.0509651
0.587798 -1.00977 0.100068
 0.469143 -0.690952 -0.575947
-0.490408  0.174035 -0.515515
-0.135547 -0.277571  0.527691
 0.179552 -0.180095  0.537967
-0.0468641   -1.16215  -0.214181
-0.217784 -0.638959 -0.354849
 0.222828   1.38977 0.0416819
0.0816254  0.815224 -0.734368
 0.13608  1.45083 0.353557
 -0.299803    1.36351 -0.0120287
 0.34297  -1.3686 -0.11009
 0.287001  0.453719 -0.352649
 0.126763  -1.11419 -0.555777
-0.0767648  -0.095677   0.412953
-0.344851  -0.18888 -0.730633
0.561696 0.825969 0.588384
-0.0856761  -0.380621  -0.692611
-0.0379341    1.26398  -0.631549
 0.392652 -0.723749  0.340035
 0.049192  -1.04987 -0.494895
-0.232849 0.0013377 -0.241606
 0.299936 -0.793862 -0.420406
 0.261435    1.3343 0.0740236
0.0261798  0.917738 -0.700256
0.565192 -1.41837 0.109994
 0.350174   1.00463 -0.332984
0.0271211  -1.17319  -0.21469
0.322226 0.359136 0.795136
-0.682584  0.829942 0.0302485
-0.141326 -0.444575  0.524455
   0.214688   -0.910727 -0.00283787
-0.164644 -0.521343  0.373462
-0.888641 0.0391633  0.182234
0.422745 0.983575 0.678512
-0.716794 0.0268327  -0.29396
-0.175788   1.19679 -0.477959
  -0.110039 -0.00760673    0.398223
  0.46094 -0.913332 0.0952305
 0.262174    1.0151 -0.487952
-0.089531  0.801184 -0.717751
 0.169973  0.226802 -0.336945
0.326163 0.433587 0.807581
 0.144961  0.256753 -0.289513
-0.0233418  -0.874788  -0.459365
0.530082 0.584449 0.633462
-2.25514e-06     0.387739    -0.937632
 0.260701  -1.15035 -0.629266
-0.476011  0.181411 -0.341673
-0.789691  0.273425 -0.274396
-0.413326 -0.140841  0.767151
-0.382083 0.0724868 -0.385605
 0.484456 -0.264788  0.144195
-0.471037 -0.489399    0.1247
 0.37926 0.395217 0.396327
 0.104793  -0.87663 -0.520748
 0.117966  -1.31082 0.0825891
-0.243353  0.372356  -0.53194
-0.114439   -1.0367 0.0734158
0.335468 -1.30491 -0.37954
  0.285714    1.06961 -0.0830416
-0.313604   1.33765 0.0540842
 0.331663  -1.57938 -0.114654
 -0.941514  0.0282977 -0.0662789
 0.275078  -1.57275 -0.258657
-0.577831 0.0486178 -0.424956
-0.329818 0.0485926  0.787321
 0.084771 -0.705882 -0.525517
-0.192039  0.105967  0.718583
-0.0401306    1.12605    -0.6931
  -0.6136 -0.227373  0.241109
 0.389058  -1.65836 -0.285633
-0.211373  0.705846 -0.624476
 0.145126 -0.240476  0.678512
-0.631597   0.11151 -0.536424
-0.0600759  0.0154072  -0.454089
-0.902377 0.0771727 -0.204042
  -0.21219 -0.0846451   0.624003
 0.123481  0.557318 -0.762413
 -0.39454   1.21782 -0.269928
-0.549106  0.444204 -0.433453
  0.2345 0.781776 -0.23031
 0.117802 -0.418496  0.691961
0.0284568 -0.542031  0.485864
 0.070467 -0.957587  0.262764
0.460839 0.939026 0.314872
-0.201747 -0.113088  -0.17909
 -0.742949 -0.0602962     0.5682
-0.0951252  -0.242461   0.259749
  0.20487  -1.11183 -0.598414
0.182939 -0.77644 -0.34423
  0.365793 -0.0425087   0.909095
   0.331806    -1.54861 -0.00833917
-0.313168 -0.504352  0.200619
0.498686  0.84129 0.345066
 0.443659    0.8709 -0.294715
 0.310685 -0.283611  0.713423
 0.337013  -1.02965 0.0700449
-0.340354   1.30996 -0.156265
0.332343  1.19732 0.528075
-0.0770138  -0.769447  -0.439234
-0.397832 -0.684677 0.0603854
0.391018 0.420844 0.346583
0.301553  -0.6947 0.106894
-0.0356996  -0.131333   0.665787
 0.258434 -0.324065 -0.137343
 -0.898683   0.140243 0.00152518
0.358601 0.212193 0.264244
-0.356307  0.582002 -0.531723
0.103796 0.451494 0.703492
0.323252   1.0201 0.711293
0.359289 0.588279 0.777131
0.375252  0.52913 0.137206
  -0.396003 -0.00996661    0.625629
   -0.6326   0.907225 -0.0580591
  0.324451 -0.0329719   0.270739
-0.491152  0.478782 -0.450371
 0.472651  -1.58867 0.0319303
   0.47936 -0.0213102   0.831522
-0.499804   1.13835 -0.104269
-0.0380316  -0.800314  -0.457612
 -0.635921 -0.0488976   0.684975
0.533795 -1.42002  0.22317
-0.165267   1.42775 0.0280083
0.468628 0.448321 0.791809
  0.13545  -1.16257 -0.194633
-0.259333 -0.353899 -0.676496
  0.27416 -0.272361 -0.102475
-0.00920432     1.37004   -0.483648
 0.375384  -1.39823 -0.540196
 0.366033 -0.757156 -0.449201
 0.297492  -1.53047 -0.437346
 0.339051  -1.56728 -0.420982
 0.460821  -1.02494 -0.612807
-0.187365     1.203  0.513097
 -0.509473 -0.0672294  -0.476008
0.0249284  -1.20645  0.111502
-0.812148   0.37631   0.12489
 0.465871  -1.02323 -0.586288
-0.826713  0.065228  0.382125
-0.486474 -0.183406  0.208246
 -0.590499  0.0915189 -0.0840815
-0.263028   -0.5712 -0.325406
 0.441681  -1.14347 -0.526057
-0.554928  0.547722  0.553165
-0.552518  0.705115  0.509417
-0.450275 -0.377121  0.152546
 0.139213  0.299522 -0.254198
-0.157947  -1.03067 -0.257345
 0.922443  -1.30851 -0.758935
  0.520838   -1.56322 -0.0571693
-0.0811342    0.76092   0.723811
0.0125281  0.169015 -0.191006
-0.205638  0.536424 -0.640887
-0.608564 -0.101864  0.309985
 -0.13576  0.832652 -0.676802
 -0.466058 -0.0644493   0.640005
-0.154647    0.2252  0.691444
-0.474777  0.205094 -0.300666
 0.38231 0.991125 0.704389
 0.218912   1.28834 -0.201339
-0.0522738 -0.0840012  -0.866198
 0.106106 -0.253657  0.709274
 0.159821 -0.795717 -0.274871
 -0.317572 -0.0533468   0.846173
 0.177528   1.36355 -0.127261
 0.721999  -1.39366 -0.689379
-0.368299   1.29258 -0.127289
0.527959 0.613641 0.440879
-0.337063 -0.854765 0.0508116
-0.0261362   -1.25455  -0.294884
 0.764859  -1.26543 -0.768924
-0.121174    1.1806  0.568333
0.182911 0.032728 0.198333
0.174297 0.200805 0.179725
-0.145449 -0.369198 -0.709071
0.263533   1.0681  0.69868
-0.296894    1.0269 -0.512609
 0.328176 -0.305476 -0.392362
 0.579682  -1.43672 -0.683259
-0.238776 -0.640544 -0.298984
 -0.302252  -0.815422 -0.0712365
 0.308713  0.456302 0.0102071
  0.331732   0.538735 -0.0968033
-0.352432 -0.316337  -0.14782
   0.506308    -1.50916 -0.00613088
  0.160442  -0.176581 0.00251562
-0.32042 0.300879 0.736946
-0.255714  -0.08264 -0.570319
0.0822591 -0.176163 0.0122516
0.122581  1.19333 0.588327
 0.189937 -0.684573 -0.327236
0.258155 0.274673 0.183561
0.536593 0.715425 0.565978
-0.156722  -0.47998 -0.540646
0.364191 0.441223 0.158886
 0.219298   1.31494 -0.118395
-0.291432 -0.136641 -0.388818
-0.441872 -0.323478 -0.426005
 0.197788  0.459137 -0.254558
-0.525654 0.0264825 -0.442328
 0.224425  0.825853 -0.100782
 0.202894 -0.759878 -0.118088
 0.339349  0.679451 -0.299218
-0.618972  0.650319 -0.324235
0.172111 0.770585 -0.68977
-0.783312  0.428785  0.201447
-0.206375  -1.01432  0.103553
-0.0894803   0.209225  -0.977347
-0.0976237  -0.192695   0.530845
 -0.850825 -0.0562678  -0.280546
-0.227243 -0.176895  0.171683
 0.420465   1.05047 -0.020743
0.469262 0.650464 0.622599
-0.376918   1.30461 0.0080128
0.0587104   1.53795  0.141131
 0.192243   -1.1779 -0.205214
-0.562116   1.02194 -0.133977
-0.267494 -0.113531  0.667578
-0.405391   1.17176  0.303011
-0.200476  0.184617 -0.455847
-0.838012  0.210597  0.226209
 0.401336  0.687113 -0.119934
-0.616138   0.88233  0.235191
 0.136088 -0.559669  0.470174
 0.205556 -0.671949 -0.202922
-0.585137  0.984511 -0.112392
0.488396 0.680467 0.249726
 0.269153  -0.33944 -0.345232
-0.835452  0.206202 -0.210508
  0.201333    0.34925 -0.0764001
-0.666486     0.309  0.499569
-0.132112   1.25931 -0.452672
  0.42827 -0.984641  0.293549
 -0.330506  -0.725933 -0.0647305
0.0245284   1.23976  0.539924
 -0.43795   1.18983 -0.222825
 0.495457  -1.07781 0.0625348
 0.191965 -0.847206 -0.111297
0.151142 -1.18569  0.23765
 0.288995  0.787634 -0.217911
-0.227583  0.124145 -0.474269
0.552977 0.782632  0.49235
 0.235445 -0.142883  0.427907
-0.0372059     1.3306   0.432004
0.0641859     1.484 -0.145386
 0.475948  -1.13084 0.0573176
0.475258  -0.3055 0.114332
-0.199712   1.07641 -0.543463
  0.16568  0.586134 -0.634215
0.394956 -1.58568 -0.46656
 0.206697 -0.570744 -0.336687
 -0.864793 -0.0859908  -0.159483
0.400117 0.817374 0.180693
 0.423405 -0.745453  0.334933
 0.203893    1.2976 -0.236502
 0.452661  -1.05455 -0.524113
 0.310238 -0.747461  0.116965
 0.357654  0.728861 -0.298593
0.191479  0.67251 0.737313
-0.264455 0.0539196  0.578564
 0.341863  -1.42346 -0.577412
0.137626 0.517935 0.732814
-0.0483997   0.124755   0.609679
 0.473541 -0.797667 -0.651897
 0.675531 -0.406299  0.200194
 0.436091 -0.335125  0.421321
   0.1597 -0.367239 -0.627275
   0.1124 -0.654874  0.389318
 0.274324 -0.937724 -0.618944
-0.470989  0.232713 -0.499349
-0.133991  0.634964  0.718623
 0.250707    1.2616 -0.138799
 -0.211458 -0.0471398  -0.170603
-0.0300167   0.593419  -0.876447
 0.513946 -0.399184  0.341424
 0.270226  -1.33936 -0.220638
0.453162 0.504663 0.787398
 0.0850627 -0.0125753  0.0421349
 0.399555 -0.572515 -0.451249
 -0.872949    0.18778 -0.0385974
0.182203  1.41605 0.286775
0.282013 0.362073 0.590596
 0.186128 -0.728115 -0.336544
 0.134675  -1.13933 -0.145851
-0.765802  0.324637 -0.309748
 0.269384  -0.20473 -0.329876
 0.355938 -0.489387 -0.614069
  0.235409  -0.717547 -0.0360046
 0.200198 -0.425899 -0.296804
 0.69675  -1.2368 0.169454
-0.803562  0.278772  0.286975
 0.279187  0.546354 -0.197464
  -0.74341   0.648181 -0.0145372
 0.143725  0.353771 -0.371572
-0.00480632 -0.00607745   -0.116986
 0.47595 0.679792 0.139164
 0.255197 -0.674879 0.0269729
0.236428 0.829051 0.743476
-0.299547 -0.345988 -0.652111
 0.272123  0.692974 -0.572459
 -0.58319 -0.151862 -0.545264
0.455201 0.284833 0.863195
0.417881 0.425874 0.186206
 0.264295   0.67474 0.0436721
-0.574175  0.925296 -0.234558
 0.181586   1.22695 -0.358774
  0.272456   -1.50643 -0.0208161
 0.268411  0.934823 -0.624565
0.418371 0.669699 0.699877
0.294827 0.337387 0.258761
 0.231958  -1.12993 -0.176937
-0.223287   1.34455  0.245039
  0.230067  -0.696028 -0.0881402
0.00431685  -0.918914  -0.471294
-0.587048  0.622885 -0.363638
0.200786 -1.02194 -0.58973
-0.917912 0.0146441  0.128351
 0.274954 -0.221702   0.50849
-0.325993  0.864269  0.612241
-0.540266 -0.409088 0.0958979
0.468552 -1.33118 0.275703
-0.305167  0.962979 -0.530361
  -0.831151    0.332435 -0.00176389
 -0.35514   0.82321 -0.528527
 0.293706  0.921471 -0.515505
0.00322432   0.149773   0.562065
-0.217808 -0.869296  0.126065
-0.682947 -0.135479  0.557929
0.0158261  -1.11594 -0.192206
-0.201765   1.11074  0.579293
-0.248085 0.0919289  0.336345
 0.368188 -0.388586 -0.406507
-0.439079 -0.317929 -0.492005
 0.421925  -1.30758 -0.514926
0.497863 -1.15153 0.283374
-0.479675  0.198405 -0.217222
 -0.398528    0.11497 -0.0944986
-0.215645  -1.02568 -0.152561
-0.0629777    1.37351  -0.522167
0.417038  1.08332 0.232304
0.279471 -1.06366 0.012239
 0.201874 0.0837354  0.389078
-0.802107  -0.13641   0.29226
0.549486 -0.30271 0.234059
-0.693244  0.374999  0.442568
 0.368206 -0.581876 -0.625234
-0.0335875 -0.0763111   0.616601
 0.117377 -0.207346  0.633035
 0.151998   1.07535 -0.683927
-0.529694  0.767043 -0.383476
0.0198323  -1.08126  0.213257
 0.364266   -1.3861 -0.465565
  0.466429    -1.6562 -0.0890685
0.0610368   1.39629  0.407759
-0.771283  0.461677 -0.159703
 0.426065  -1.50071 -0.436891
 0.165456 -0.901776 -0.198682
0.251914  -1.2373 0.262658
-0.0321455  -0.369956   -0.70296
0.0307027  -0.34069 -0.697487
  0.40237  0.978654 -0.275127
 0.278055  0.499669 -0.433161
-0.498888 0.0308362  0.769958
-0.584079  0.362472  0.569294
0.608072 -1.45249 0.214437
0.384614 -1.63399 -0.20462
 -0.425208  -0.420424 -0.0355555
  0.118048     1.4595 -0.0440315
 0.166583  -1.37502 0.0775893
 0.129289  0.551003 -0.676041
  0.294808  -0.313133 -0.0153144
 0.327607   1.04244 -0.162869
-0.208531 -0.144488 -0.273825
0.227682 -1.49155 -0.15961
 0.104256  0.533358 -0.807184
-0.150535  -1.07778 -0.257089
 -0.865708 -0.0711353  -0.221904
 0.381199 -0.260964  0.417172
-0.345321   1.20747 -0.366915
  0.415758   -1.31998 -0.0052543
 0.150537  0.484961 -0.542438
0.141917 0.109454 0.203769
 0.173123  -1.26847 -0.586635
 0.419684 -0.156347  0.177238
 0.302098   0.54702 -0.159685
 0.317238  0.773964 -0.443963
-0.206939 -0.704698  0.179736
-0.640106  0.306106 -0.464837
-0.0143234  -0.183898   0.710716
-0.481423  0.938196 -0.389127
0.0970494  0.682443 -0.829016
 0.322943  0.643262 -0.243279
-0.568754 -0.106158  0.273728
 0.503004  -1.43767 -0.637009
-0.0866207   0.576629  -0.860933
 0.0395363 -0.0474434 -0.0877268
0.026363 0.268227 0.592186
 0.183111  -1.39529 0.0167969
-0.710416  0.404788  0.405884
-0.517397 -0.104574  0.243805
-0.524381 0.0776692  0.723071
0.133911 0.121005 -0.40767
  -0.43424 -0.0675751  -0.645971
 0.34937 0.100027 0.849342
 0.816729  -1.44767 0.0989607
 0.418715    1.0873 0.0893024
 0.390143  -1.32682 -0.489703
 -0.469304    1.18553 -0.0880614
-0.0748693  0.0869429  -0.887152
0.451759 0.457247 0.233117
 -0.133759 -0.0104125   0.697476
 0.317999   0.49915 0.0786627
 -0.662128 -0.0779647  0.0411369
0.0868336 -0.463608  0.609436
 0.241663 -0.819338 -0.394228
-0.230163 -0.091383 -0.118068
 -0.24347 -0.666416 -0.238605
 0.428683  -1.09905 0.0580478
0.105344 0.193245  0.49937
 -0.367103  0.0302343 -0.0449452
 0.364797 -0.458628  0.106646
-0.147263   1.42888 -0.169166
0.0917444 0.0251864  0.478664
-0.928577   0.06054 0.0482436
 0.586875  -1.37992 -0.622949
-0.321444  0.236562 -0.480277
0.533578  0.83314 0.478016
  0.230818    1.35512 -0.0380747
-0.79827 0.374035 -0.13353
-0.0132224  -0.575801   0.434464
0.0929438  0.919006 -0.697184
0.0146502 -0.554434 -0.566265
-0.0888724  -0.869022  -0.416313
  0.046694 -0.0313587  0.0893536
 -0.840067   0.272781 -0.0551776
 0.374967  -1.18922 -0.423998
  0.196139  -0.110834 -0.0489424
-0.623945  0.434135  0.505178
 0.483541  -1.43212 0.0995074
0.0994334  0.157339 0.0916544
 0.249375  0.460562 -0.342106
-0.291062  -0.26481  -0.16352
-0.405102   1.25898 -0.104133
0.00133818   -1.02351   0.213189
-0.103898  0.464826 -0.826038
 0.958867  -1.43264 0.0953973
 0.348319 -0.141467   0.28925
  0.32881 0.0586405  0.199781
 0.08229 0.107534 0.113688
-0.405258 -0.066758  0.836899
-0.279896 -0.345811  0.225553
-0.282307  0.292389 -0.477173
 0.202296 -0.766934  0.323047
 0.559852 -0.449447  0.310319
0.0471899   1.44443 -0.250532
0.166119  1.38107 0.443431
 0.300934  -1.12646 -0.627708
 -0.11737  0.190509 -0.895746
  0.248612   -1.22855 -0.0415804
-0.435507  0.208504 -0.259391
-0.0833214   0.913732   -0.70535
-0.667118  0.712623  -0.23877
0.250975 0.333255 0.554758
-0.258186 -0.307101 -0.779669
 0.129706 -0.839302 -0.534424
 0.339366 -0.583306 -0.415067
 0.36153   1.1868 0.213698
-0.499134 -0.462798  0.083352
-0.00559772   -0.168753   -0.127814
  0.292276   0.699046 -0.0964017
-0.693354  0.498956 -0.350671
-0.240544     1.012  0.614079
-0.0542377   -1.05686   0.168119
 0.305147  -1.47453 -0.477961
 0.160971  0.408673 -0.429691
 0.310481 -0.823838  0.299267
 0.254872 -0.598336   -0.6226
0.443239 0.909834 0.702226
 -0.22188 -0.932408 -0.161815
 0.326326  0.933344 -0.389142
  -0.53105 -0.0221649  -0.644147
-0.229132 -0.515752 -0.460635
-0.0249953  -0.010242  -0.186566
0.0122839   -1.1798 -0.475021
 0.267405 -0.501411 0.0193956
 -0.680472 -0.0588796  -0.471134
  1.02341  -1.37516 0.0410721
-0.283231  0.973355  0.600549
 0.127387  0.779044 -0.749547
-0.562773  0.139846  0.658869
-0.747647   0.62922  0.106741
-0.138806   1.18968 -0.516637
0.829768 -1.29426 0.147098
 0.488783  0.734985 0.0109714
0.575385 -1.35032 0.251641
-0.0866124  -0.304364  -0.878849
0.00536446   -1.26645  -0.398716
 0.664806 -0.746967  0.174898
 0.0915681 -0.0705404  -0.446853
 0.249103 -0.786817 0.0689746
 -0.23042   1.33069 -0.292662
0.375526  1.11699 0.336879
 0.652624 -0.620978  0.147175
-0.283586 -0.464604  0.253813
0.0613245   1.36368 -0.367349
-0.520485 -0.377031 0.0635453
-0.738268  0.645687 -0.111361
 0.220778 -0.315505 -0.582242
-0.479649 -0.502307 0.0563693
 0.214012  -1.06009 -0.116698
 0.484842  -1.07263 -0.565177
-0.273255   1.25835 -0.368603
0.474205 0.233037 0.853966
 -0.325263 -0.0380895  -0.554502
 0.404052 -0.324893  0.466307
-0.153305  0.496557 -0.703582
-0.781577 0.0335715 -0.514707
-0.0937894  -0.624216    0.32268
0.0598981  0.991581  0.694428
-0.0928287 -0.0566245   0.407589
-0.332698  0.738025  0.638292
 0.419855 -0.822927 -0.654524
 0.235199 -0.914756 -0.380571
 -0.446708  0.0875296 -0.0561016
 0.203338 -0.512658 -0.195887
-0.539872  0.247785 -0.495485
0.191492 -0.26152 0.706214
0.243537 -0.59736 0.426873
-0.171893 -0.434675   0.48681
 -0.157642 -0.0103603  -0.885059
-0.0742402   0.681805  -0.794671
 0.449555  -0.59821 -0.633872
 -0.403827  -0.530069 -0.0420813
-0.0139633    1.52994  0.0507566
0.524358 0.645014 0.389406
0.172521  1.34939 0.550839
 0.290273  -0.48396 -0.616726
-0.563424   1.03248  0.101336
 -0.769797 -0.0477836  -0.381325
 0.121397   1.30265 -0.365928
0.282511  -0.1097  0.34763
 0.561174  -1.29689 -0.626062
 -0.108146 -0.0724068  -0.507569
-0.116456  -1.08816 -0.324744
 0.150019 -0.473166 -0.626504
0.0411858   1.15835  0.607986
-0.0590185    1.22202   0.546452
 -0.695455 -0.0307685  -0.427747
-0.793969  0.228096  0.337815
-0.582046 -0.102445  0.703871
-0.651456  0.748109  0.332848
-0.328239   1.28291 -0.264398
0.00842663  -0.246443  -0.661106
0.273785  1.22698  -0.1577
  -0.72303 -0.0309019  -0.010291
 -0.924073 -0.0482155 0.00445086
-0.305116 -0.261794  0.162977
-0.358899  0.110401 -0.352246
0.312219 -0.27293 0.600425
0.455829 0.993216 0.584985
0.127874 -0.68531 -0.55782
0.0874482 -0.489838 -0.619603
-0.0491851 -0.0645274  -0.961659
 0.170729  0.282264 -0.450142
 0.670005 -0.663382  0.181185
-0.0374465 -0.0585054   -0.15728
-0.395571   1.01124 -0.448146
0.472826 -1.25144 0.286179
  0.18515  0.124329 -0.381544
-0.439347   0.20043  0.736474
-0.175031  0.402876  0.694372
-0.195713 -0.924355 -0.214215
0.00387853   0.791911   0.733398
-0.313188 0.0366592 -0.511366
-0.170559 -0.791639 -0.322967
-0.461055 -0.472159 0.0178129
 0.499503 -0.352773   0.10353
 -0.639584 -0.0961039  -0.607039
-0.490962 -0.134048 -0.695466
 -0.85941 -0.102173  0.129427
0.598208 -1.15801 0.215286
-0.448921 0.0339082  0.345751
 0.691028 -0.534568  0.203226
 0.404143  -1.12871 -0.624122
-0.151987 -0.281526 -0.863478
0.433599  1.03812 0.544265
-0.608704  0.468599 -0.404709
-0.440283  0.159219 -0.354534
-0.452762 0.0738549  0.784355
-0.207984 0.0401909  0.273663
-0.560004  0.499925 -0.407801
-0.934516 0.0367811  -0.12442
  0.353272   -1.58656 -0.0656554
 0.33848 0.145871 0.277361
 0.258668   -1.1843 -0.254162
 0.217007  0.754467 -0.190936
-0.820738  0.369387 0.0484748
0.465019  1.00109 0.216226
-0.377954  0.364048  0.720879
0.332056 0.304957 0.791634
 0.414038  0.799739 -0.297791
 0.84997 -1.33427 0.110581
 0.374206  -0.74365 -0.633943
 0.301892 -0.360024 -0.580108
  -0.235762 9.14152e-05   -0.161302
-0.348224 -0.409651 -0.476505
-0.169906   1.43044 -0.110843
  0.3535 0.285084 0.889418
 0.146373  0.328465 -0.231848
-0.289408  -1.00403 -0.023499
-0.625088  0.491609  0.486361
-0.307967  0.183198 -0.482542
-0.728946 -0.144342  0.466481
-0.213437  0.187974  0.722084
   0.0196565 -0.000789764    -0.226872
-0.688401   0.05405 -0.575451
 -0.33065 -0.155558  0.716414
 -0.81859 -0.091584  0.360634
 0.231394 -0.716095 -0.617911
-0.340042  0.933793  0.571322
0.0124747   1.13173 -0.708815
-0.349773 0.0823592  0.352556
-0.238392  0.169468 -0.469974
-0.141274  0.596689 -0.747662
-0.395631  0.714645  -0.50858
 0.49883 0.586617 0.334093
   0.336257     0.50438 -0.00816172
 0.468892 0.0291734  0.877619
-0.280027 0.0917528 -0.207192
 -0.481317 -0.0378849   0.799976
-0.214448 -0.726627 -0.257339
  0.27342 -0.190522  0.456018
-0.875222 0.0914861 -0.256424
-0.0561497   -0.91604  -0.432363
  -0.58842 -0.0846363  -0.494913
-0.432681 0.0695205 -0.408973
 0.419529  0.734472 -0.168075
 -0.59942 0.0705591  0.667012
 0.18163  1.26309 -0.31571
-0.873354   0.15436  0.103251
-0.111708  -1.15965 -0.277438
  -0.73525 -0.0207272  -0.560753
 -0.245195 -0.0781143   0.831382
-0.130371  -0.35855  0.655988
  0.417037    1.06388 -0.0562004
0.519903 0.897308 0.128417
 0.331517  -1.60532 -0.277708
 -0.524593 -0.0182743   0.485363
 0.132913  -1.41505 -0.333584
 0.438702 -0.382497  0.092084
 0.628292  -1.11464 0.0964407
-0.74863 0.103817 0.495128
-0.272885 -0.531565  0.224967
 0.311726  0.971443 0.0957209
-0.163556   1.40878  0.126761
0.432229   1.0543 0.236485
 0.683578 -0.479445  0.248442
0.324118  0.22563 0.239199
 0.581078  -1.27438 -0.748683
-0.336928  -0.36341  0.165877
 -0.794362 -0.0554681   0.499143
0.053315   -1.238 0.120652
  -0.25944 -0.0291092 -0.0931985
0.0903946  -1.23034 0.0624825
-0.610491   0.93249  0.153501
0.464434 0.317956 0.842687
0.496812 0.450588 0.736713
-0.809395  0.338509  0.201251
0.384589 0.777816 0.167603
0.0105339    1.4988  0.294294
0.705796 -1.31835 0.223656
-0.57169 0.616712 0.517887
 0.266458  0.881861 -0.648668
-0.121466  0.913721 -0.675474
-0.0994751  -0.925781    0.17201
-0.187996   1.36722  0.241254
-0.0907793     1.4918 -0.0199209
 -0.57487 -0.321475  0.198877
-0.197438   1.39907 -0.161331
 0.126498  -1.09723 -0.112056
 0.663297 -0.556766  0.163007
-0.513042 -0.111387  0.680098
-0.451086   1.21131 0.0382145
0.179146  1.04754 -0.66927
-0.386573  0.769048  0.595284
0.0826169   0.37812  0.655113
  0.11526  -1.18716 -0.559768
0.357991 0.634685 0.750357
-0.488835 -0.293644  0.033341
-0.225634 -0.261496  0.657628
 0.0683789  0.0646829 -0.0788898
 0.242202 -0.292019 -0.279204
0.477816 0.904117 0.664995
0.227432 0.952282 -0.23281
-0.0996474  -0.107316   0.713965
-0.323038 0.0719212  -0.50394
 0.336249  0.669029 -0.176985
 0.295521  0.528356 -0.356982
-0.0236458    1.43864   0.309876
-0.370236 -0.222259 -0.013369
-0.0095397    0.10887  -0.952508
 0.238896  -0.86008 0.0362607
-0.660857 -0.283358 0.0922274
 0.183753 -0.204689  0.577451
-0.204893 -0.781252 -0.246323
-0.555495  0.401776   0.58778
-0.0390096  -0.594683   0.400567
0.184591  1.10965 0.671964
 0.230298  -1.10009 -0.107921
 0.224109 -0.482511  0.591385
-0.675092 0.0731438 -0.266946
 0.211518 -0.365749 -0.289048
0.0543282  -1.06002 -0.144649
-0.0040893   0.741449  -0.784728
-0.386242    1.2577  0.171611
 0.181988 -0.093685 -0.421671
  0.14856   1.37215 -0.202673
-0.478035  0.901987  0.452779
0.0613605 0.0790776  0.496297
-0.825447  0.281277  0.221958
 0.255697 -0.117153 -0.367007
-0.231341  0.396891  0.700581
-0.498821 -0.253025   0.20973
-0.0653867  -0.554835    0.42851
-0.298342    0.5987 -0.571268
0.220344  1.19698 0.635299
 0.23226 -1.27069 -0.15454
-0.181801 -0.283005   0.23177
0.0654346  0.068484  0.164245
0.537922 -1.04407 0.264802
-0.0591062  -0.196308   0.425469
 0.215025  0.564902 -0.512277
0.414797 0.492637 0.173936
 0.104782 -0.252627 0.0737264
  0.484412     -1.622 0.00125795
-0.0810277 -0.0232657  -0.866275
  0.145063 -0.0957801  -0.088593
 0.119979  0.288284 -0.475581
 0.495905 -0.335812  0.337323
 0.468993 -0.517559 -0.557748
-0.130364 0.0914024 -0.891862
-0.774899  0.212198  0.381222
 0.283524 -0.656092  0.378108
-0.380871 0.0848312  0.448095
-0.162702  0.808315 -0.645397
 -0.06776 -0.422768 -0.649281
 0.111459  0.186242 0.0356705
 0.242367  -0.19715 0.0237786
-0.312535 -0.313375  0.168908
   0.458555    -1.43619 -0.00692507
  0.252884  -0.610999 0.00111351
-0.549757 -0.222666  0.221768
 0.10979 0.108466 0.459528
 0.289143 -0.214199  0.862158
 0.129333 -0.147169 -0.105248
-0.841805  0.296556 0.0384958
 0.118676   1.13718 -0.674916
-0.369851 -0.488494 -0.152297
-0.319267 0.0960368  0.513723
0.0720744  -1.11146 -0.520993
 0.605796 -0.908302  0.141578
-0.219314  -1.05313 0.0235358
 -0.301434   -0.15442 -0.0507639
-0.0458719  -0.239161  -0.877617
-0.715179  0.386028 -0.401974
0.0367395  0.173742 -0.146107
-0.253805   1.23518  0.418888
 0.144682 -0.310952  0.787749
 -0.612199   0.934093 -0.0996782
 0.168964 -0.739843 -0.283663
0.671858 -1.25062 0.202458
 0.0653167 -0.0158216   0.164406
 0.461038 -0.810546 -0.550464
-0.813988  0.347699  0.165122
  0.124903  0.0262833 -0.0129631
0.332699 0.546666 0.792141
  -0.318839   -0.924692 -0.00203422
-0.198719 -0.145461 -0.223347
-0.200719 -0.609889 -0.403467
 0.613001 -0.843725    0.1211
-0.123659 -0.237365   0.81587
 0.25611  1.33749 0.194788
-0.227208   1.21621   0.46799
0.299899 -1.08771 0.283314
-0.417843  0.145431 -0.511059
0.0162709  -1.30274 -0.348741
-0.234459  -0.51965  0.271085
 -0.121786 -0.0570561   0.704907
 0.187242 -0.255087 -0.546428
0.515111 -1.38761 0.068599
 0.461535 -0.751233 -0.608094
  0.235107  -0.538931 -0.0868949
0.00785558   0.387782  -0.580677
0.17917 1.21023 0.60955
-0.0157563  -0.391835   0.687181
-0.217415   1.37864  0.144865
-0.344781 -0.042875 -0.569115
-0.0997689   0.756577  -0.728856
 0.088534 -0.388003 -0.654365
-0.254896 -0.218709 -0.308114
 0.303133 -0.487328  0.103172
-0.448355  0.477846  0.659482
0.024392 0.316547 0.626668
  0.258422   0.671588 -0.0312537
  0.114593    1.48059 0.00210114
-0.0294462    -1.0919  -0.439332
0.418273 -0.65029 0.360322
-0.349803 -0.136532  0.171201
 0.344433 -0.904136  0.290638
 0.57696 -1.11801 0.235399
-0.419125 -0.396108  0.152334
0.762396 -1.30391 0.130484
-0.0677249 -0.0659956   0.648833
 -0.44788  0.190808 -0.188776
 0.262739 -0.583951 0.0654016
-0.580165  0.320167   0.58294
  0.28328    1.0064 -0.413383
0.355301 0.725984 0.140254
  0.243977   -1.06734 -0.0429154
 0.262864 0.0944053  0.199389
-0.344974 -0.509698  -0.20084
 0.436622  -1.25082 -0.507991
 0.385894 -0.172936  0.268839
0.283087  1.24043 0.475027
0.521997 -1.63593 -0.12918
-0.273503 -0.216138 -0.120518
-0.168203  0.868918 -0.640359
0.0168824   1.05649  0.667599
 0.0425446 -0.0770114   0.156126
-0.363089 -0.533135 -0.119356
0.192548  1.39376 0.315503
  0.12558 -0.137721  0.524234
-0.524496  0.939651  0.358654
-0.517755  0.966204 -0.317872
0.273791  1.31783 0.160423
-0.608606  0.938526  0.096778
 0.185438 -0.209971 0.0650611
 0.492533 -0.989749 -0.561994
0.307759  1.27775 0.210185
-0.186952 -0.421907  0.434182
 0.472023   -1.2929 -0.712766
-0.053026   1.02104 -0.713992
0.447522 -1.48211 0.087342
0.0388198 -0.236686 -0.179356
 0.569652 -0.748158  0.294171
  0.49892  -1.30858 0.0294197
 -0.71282 -0.122266 0.0610682
0.00555111  -0.505147   0.526041
 0.236453 -0.207278 -0.203513
   0.260841 -0.00950881     0.18161
-0.0672842   0.325444   -0.53582
-0.736811  0.576181 -0.205618
 0.405427 -0.604829  0.384757
0.0590735 -0.927993 -0.501639
 0.222446  0.803461 -0.156032
 0.409544 -0.109605  0.877976
 0.504929 -0.605656  0.106359
-0.403558   1.23784 -0.201469
  -0.379885   -0.708648 0.000436818
 0.441649 -0.432834  0.422822
0.0379837  -0.47303   0.58198
-0.129335  0.484181  -0.75025
 0.185985   0.30748 0.0698911
0.0689522   1.04789   0.67243
 0.225925  0.664956 -0.701749
-0.632999 -0.123668  0.553945
-0.242815 0.0660756  0.291915
 0.136975   1.24448 -0.448585
 0.308429  0.693953 -0.408233
-0.257587 0.0230282  0.766387
-0.244132   1.36405 0.0889003
 0.439386  -1.53681 0.0735159
 0.253896  0.459344 -0.404936
 0.162837  0.334245 -0.473349
0.426695 0.832991 0.704623
   0.34459    1.07597 -0.0141439
0.424229 0.567968 0.767715
-0.00262024   -0.289194     0.79308
0.130309   1.4866 0.237366
 0.233435 0.0853012  0.354577
 0.34429 -1.35044  0.22151
  0.142448 -0.0871382   0.174945
-0.271617 -0.688106 -0.156882
0.432344 0.510848 0.427217
 -0.690273 -0.0587153  -0.588952
 0.144114 -0.528666  0.505777
  0.334211 -0.0306623   0.846102
0.246469 0.186674 0.176531
 0.0649991 -0.0373567  -0.249618
-0.730927 -0.178031 0.0754592
-0.634507  0.112138 -0.271006
 0.279676 -0.145911  0.381074
-0.779459 -0.211153  0.202201
 -0.40566 -0.390138 -0.110322
0.154812  1.07105 0.677474
  0.26347 -0.878059  0.292244
 -0.27335 -0.193482  0.164958
  0.452004 -0.0286235   0.795516
-0.386052  0.180485 -0.266267
 0.219907  -1.17526 -0.061179
-0.376126   -0.4383 -0.191413
 0.387946  -1.42578 -0.125872
-0.0404829  -0.206257  -0.637228
-0.161394 -0.349104  0.329114
-0.427746   1.09766 -0.359052
0.0641593  0.856821 -0.711225
 0.398453  0.945835 -0.328294
-0.750713 -0.230199  0.218307
 0.178303 -0.979354  0.278625
 0.431451  -1.53997 -0.470386
 -0.477364 -0.0123772 0.00765134
-0.274277  0.844814 -0.575222
-0.507149 -0.059968  0.597778
-0.198889 -0.419335  0.390458
 -0.416968 -0.0558024 0.00661905
 0.320323 -0.640539  0.110356
 0.103715   0.14037 -0.294273
0.219162 0.269381 0.501096
-0.402015 0.0631558  0.502687
 0.253601 -0.254124 -0.222015
-0.0820179  -0.200334   -0.83345
 0.361272   0.59113 0.0348317
 0.422954 -0.212906  0.122661
 0.532433 -0.854403  0.100246
 -0.343939    1.32988 -0.0482858
0.471165 0.526141 0.274165
 0.212556   1.27433 -0.261543
 -0.3219  1.27567 0.234202
 -0.5364  1.09064 0.059737
0.858242 -1.45941 0.146008
 0.702355  -1.40518 -0.748577
-0.144058   1.10595  0.613523
0.0042122  0.480685   0.71525
0.198546 -1.15607 0.269107
 -0.463897 -0.0271599  -0.619663
    0.1266 -0.0110448   0.182087
0.329156 0.298228 0.842663
0.353876 0.354895 0.288474
-0.0512534   0.991491   0.690773
 0.304292  -1.06423 -0.388354
0.480155 0.163542 0.811465
0.247867 0.957872 -0.02228
-0.345842  0.101358 -0.107641
-0.207067 -0.183689  0.851019
 -0.32259 -0.664114  0.135562
-0.515196 0.0787384 -0.044199
 0.0232045 -0.0905513   0.573505
0.0880352  -1.32953 -0.255751
-0.103432   1.41763  0.254115
-0.185043 -0.150615  0.178538
-0.352488 0.0773816  0.789668
 0.0727694   0.139056 -0.0751498
-0.521727  0.278058  0.648484
 -0.425985  -0.481689 -0.0317151
 1.08363 -1.34345 0.108273
  -0.732128    0.698632 -0.00918332
  0.402492   -1.62108 -0.0833448
  -0.48862 -0.0824344   0.793403
-0.166271 -0.180725  0.616755
0.185835  -0.9433  -0.3075
 0.674441 -0.935232   0.18489
 -0.838011 0.00218077  -0.431452
-0.653027    0.8627  0.124059
  0.256885 -0.0297245   0.336731
-0.088352  0.237763 -0.468345
 -0.581833 -0.0375935   0.729751
  0.42515   1.02825 0.0122589
-0.289015  -0.25068 -0.314784
0.0940623  0.300816   0.59344
0.906362 -1.44552 0.113663
-0.0952686   0.818584   0.716345
 -0.377686     1.2973 -0.0535451
-0.0456268  -0.233384  -0.696232
 -0.924877   0.094206 -0.0207516
-0.512276   1.02091 -0.283925
 0.384198 -0.174783  0.109675
  0.452709 -0.0254769   0.881061
 -0.89656 0.0399327 -0.264058
 0.228276  0.711945 -0.612458
0.0585704   1.33622  0.458519
0.504986 0.832218 0.241547
-0.178239  0.588502  0.709216
 0.176155  0.587173 -0.572267
 0.124174  -0.56886 -0.597914
 0.392807   1.08311 -0.115684
0.467131 0.999745 0.147845
-0.603598  0.972849 0.0173616
-0.560894   1.04673  0.062677
  0.290567   -1.13417 -0.0297731
  -0.34363  -0.118256 -0.0157461
-0.846627  0.033843 -0.392391
 0.398249 -0.388109 -0.465989
 0.362745 -0.212994  0.363477
0.259067  1.27638 0.475547
  0.189396   -1.41176 -0.0544769
 0.697395 -0.722582  0.246201
  0.38332  0.867243 -0.341958
 -0.555729 -0.0650576   0.541592
-0.246636 0.0112567  0.599305
 0.160019   -1.0885 -0.569127
 0.214956 -0.253285  0.762913
 0.107942   -1.1943 0.0371036
-0.777044 -0.114586  0.488815
-0.407717  0.610505  0.637574
0.296898 0.716583 -0.51139
 0.068849  0.201075 -0.112169
-0.486617  0.990649 -0.355335
0.456326 0.996754 0.492919
0.257679 0.412919 0.743411
-0.901669  0.112664 -0.154738
0.0435538 -0.162912 0.0344606
  0.367561 -0.0422427   0.173334
 0.576447 -0.936584  0.253639
-0.132904 0.0945745  0.683902
0.135795 0.178306 0.470346
 0.401886  -1.05498 0.0729814
-0.731676  0.490447 -0.300378
 0.46312  0.44591 0.635616
  0.43061 -0.167123  0.793348
 -0.410064 -0.0745078   0.674652
-0.0626049  -0.215525  -0.913122
-0.167213 -0.311198 -0.843875
 0.271188 -0.513781 0.0571918
 0.274977  0.603756 -0.510331
-0.230285   1.13594 -0.496596
-0.823279  0.325104  -0.07459
0.00476348  0.0699964  -0.130165
 0.426266 -0.186552  0.217649
 0.606407   -1.2755 0.0916178
-0.790227   0.43851  0.162339
 -0.573004 -0.0776145  0.0359827
0.210334  -1.2789 0.221315
-0.425863  0.758292 -0.482939
0.130763 0.206945 0.125898
 0.619885 -0.748067  0.131147
0.323323 0.763314 0.729409
-0.099939 -0.271847  0.455869
-0.844617  0.280397 0.0929107
-0.340931 0.0256273  0.612321
 -0.157221 -0.0498087  -0.945354
 0.145067  -1.30462 -0.243355
-0.153322  0.112779 -0.919811
 0.358159  -1.32404 -0.424532
-0.746793  0.406203 -0.313245
-0.242255 0.0946252  0.524806
-0.728893  0.556235  0.294647
 0.228036 -0.565261 -0.130876
  0.310798  -0.252869 0.00239987
-0.614095 -0.120303 0.0427082
  0.140358   -1.12065 -0.0498995
  -0.83024 -0.0828729  -0.058599
0.0178562  -1.02899 -0.474373
 0.373366 -0.351468  -0.55505
 0.159419 -0.153914 -0.466197
-0.256618 -0.518179 -0.434849
-0.284813  -0.57004 -0.272194
 0.229038  0.482908 -0.236554
0.0551551   1.39355 -0.319101
-0.328171  0.600425  0.666436
-0.353169 -0.241366  -0.73231
-0.640338  0.676032  0.389311
 0.345198 -0.264791  0.838205
 0.46643 0.636115  0.20803
-0.687293 -0.124365  0.366421
-0.186717 -0.729242 -0.330862
0.0819132  0.559694  -0.85668
-0.412694   1.03227  0.443034
   0.26236    1.29534 -0.0525186
 0.354307 -0.676286 -0.643193
-0.579028 -0.181617 0.0390395
  0.273283   0.409798 -0.0187496
 0.430934  0.967955 0.0842802
 0.381558  -1.44361 -0.358297
-0.664532  0.464552 -0.387446
 0.367699  -1.07393 -0.631378
-0.152612 -0.183445  0.845264
 -0.923642 -0.0121449  -0.186262
 -0.617946 -0.0776016   0.375353
-0.182156 -0.534922  0.321115
-0.0806056  0.0518085  -0.987594
 0.541181 -0.334619  0.280684
-0.0610314    1.39552  -0.380941
 0.244806  0.623813 -0.566566
0.351488 0.688314 -0.22361
 0.683347 -0.790677  0.210627
-0.100755   1.45637  -0.20357
 0.11921 -1.26463 0.178662
-0.0433443  -0.460381  -0.613521
-0.038208   1.25635  0.515379
 -0.218399    1.40622 0.00637379
-0.142214 0.0417265  0.423466
0.0130473   1.51891  0.234868
-0.322393  0.367772  0.720151
-0.0369042    1.49757  0.0997897
 0.733057  -1.37099 -0.780921
 0.166338 -0.169134  0.140499
-0.230487   0.90756 -0.587343
-0.0811218   0.626058   0.725413
0.0696324   1.37251 -0.334768
-0.180803 -0.999422 -0.220547
0.118931 -0.44652 0.644075
0.122075 0.053558 0.193469
-0.625684  0.582723 -0.339379
  0.35231 -0.873674 -0.615099
 0.616927 -0.621021  0.122366
-0.726332  0.694095  0.130817
 0.0959233 -0.0447829 -0.0825339
 0.241515 -0.321097 -0.195262
0.479481 0.510576 0.391696
0.444185 0.385645 0.673946
-0.044793  0.229195  0.618089
-0.0711321  -0.699282   0.281042
 0.446337   -1.5652 -0.281241
-0.706873  0.665048  0.290735
0.273795  1.25028 0.427128
   -0.22365 -0.00234983   -0.502394
  -0.142174 -0.00637032    0.272469
0.399269 0.590804  0.11902
-0.432206 -0.285985 -0.417157
-0.851234  0.175113  0.192148
-0.318279 -0.447963  0.224134
 0.44234 0.491821 0.530981
 0.690077  -1.31567 -0.792207
0.0503809  -0.81872  0.298409
0.526435 0.748404 0.369963
-0.700544  0.431669 -0.387698
 0.304273 -0.302404 -0.553274
-0.311464  0.777436 -0.567403
-0.748834  0.620707  0.162138
0.00569047    -0.4154   0.663172
-0.135548  0.204008 -0.935866
 0.269088  0.767952 0.0819353
 0.616719  -1.33495 -0.639312
 0.468051  -1.14263 -0.578067
 0.324245   1.17078 -0.155953
-0.343364 -0.604881  0.146091
-0.550679 -0.132344 -0.655534
-0.479093   1.15592  0.159744
0.493576 0.726331 0.182241
-0.114149 -0.299126  0.438941
 0.492717  -1.22458 0.0399735
-0.326045   1.30756  0.154071
-0.210526 -0.059919  0.778808
-0.155134   1.39424  0.185314
-0.303471 -0.777372  0.107759
-0.899448  0.124457 0.0475171
 0.208469 -0.184559 0.0980534
-0.369366  0.905192 -0.502296
 -0.147205 -0.0454796   -0.50262
0.350807 0.387942 0.596834
 0.121597 0.0604303 -0.406017
-0.505778   1.09122  0.224086
-0.346849  0.431116  0.705772
0.576124 -1.13491 0.084418
  0.268288  -0.356717 -0.0728977
-0.716358 0.0231978 -0.119639
-0.345214 0.0198466 -0.391373
-0.0699627   0.389516  -0.937779
 0.417102 -0.461845 -0.621627
0.339368  1.01313  0.11384
 0.253038  -1.34504 -0.191192
-0.233788   1.28593  -0.35926
0.514105  -1.4291 0.192294
-0.240427     1.375 -0.166712
 0.154427  0.612645 -0.787131
-0.177162  -0.12537 -0.912168
  -0.694677 0.000865656   -0.597068
 0.358818 -0.126326  0.777689
  0.390764 -0.0763962   0.190152
-0.315894 0.0817735  0.321765
 0.463704  -1.38369 0.0193597
 -0.822866 -0.0659558  -0.132263
-0.510201 -0.226347 -0.547157
 0.426213  0.909789 -0.313542
-0.332718 -0.101818 -0.626675
0.0859005 -0.955608 -0.516032
-0.292372  0.455585 -0.551863
