0.465019  1.00109 0.216226
-0.377954  0.364048  0.720879
0.329883 0.312813 0.790993
 0.409981  0.802803 -0.301537
 0.84997 -1.33427 0.110581
 0.366306 -0.738952 -0.635144
 0.299546 -0.356847 -0.579257
 -0.231387 -0.0067177  -0.164219
-0.343992 -0.414648  -0.47397
-0.169906   1.43044 -0.110843
0.357185 0.290046 0.888769
 0.150913  0.333483 -0.239661
-0.289408  -1.00403 -0.023499
-0.625088  0.491609  0.486361
 -0.30216  0.187804 -0.480826
-0.728946 -0.144342  0.466481
-0.214456  0.192017  0.722157
 0.0179089 0.00367756  -0.225897
  -0.6808 0.0521972  -0.58144
 -0.33065 -0.155558  0.716414
 -0.81859 -0.091584  0.360634
 0.225241  -0.72552 -0.613915
-0.340042  0.933793  0.571322
0.0150525   1.13921 -0.705768
-0.349773 0.0823592  0.352556
-0.236917  0.169923 -0.469386
-0.145603  0.591525  -0.74139
-0.395631  0.714645  -0.50858
0.496997 0.581877 0.330452
  0.336606    0.50663 -0.0210077
 0.471176 0.0320803  0.875883
-0.274483  0.083474 -0.204876
 -0.481317 -0.0378849   0.799976
-0.213243 -0.724477 -0.262921
 0.274138 -0.191298  0.456584
-0.873358 0.0949788 -0.256662
-0.0559771  -0.920432  -0.431682
 -0.590665 -0.0898428  -0.496947
-0.427818 0.0562246 -0.413237
 0.422592   0.73655 -0.172601
 -0.59942 0.0705591  0.667012
 0.18163  1.26309 -0.31571
-0.873354   0.15436  0.103251
-0.107025  -1.16563 -0.278903
 -0.726079 -0.0181453   -0.57151
 -0.245195 -0.0781143   0.831382
-0.130371  -0.35855  0.655988
  0.417037    1.06388 -0.0562004
0.519903 0.897308 0.128417
 0.335625  -1.60916 -0.280578
 -0.524593 -0.0182743   0.485363
0.132662 -1.41555 -0.33074
 0.429512 -0.379669 0.0926936
 0.628292  -1.11464 0.0964407
-0.74863 0.103817 0.495128
-0.272885 -0.531565  0.224967
 0.311726  0.971443 0.0957209
-0.163556   1.40878  0.126761
0.432229   1.0543 0.236485
 0.691997 -0.466309  0.243479
0.315635 0.230018 0.235197
 0.579141  -1.27795 -0.749496
-0.336928  -0.36341  0.165877
 -0.794362 -0.0554681   0.499143
0.0585896  -1.24424  0.123645
 -0.253259 -0.0347534 -0.0981512
0.0903946  -1.23034 0.0624825
-0.610491   0.93249  0.153501
0.466305  0.32403 0.836199
0.498747 0.455562 0.734895
-0.809395  0.338509  0.201251
0.384589 0.777816 0.167603
0.0105339    1.4988  0.294294
0.705796 -1.31835 0.223656
-0.57169 0.616712 0.517887
  0.26731  0.878047 -0.646334
-0.121466  0.913721 -0.675474
-0.0994751  -0.925781    0.17201
-0.187996   1.36722  0.241254
-0.0907793     1.4918 -0.0199209
 -0.57487 -0.321475  0.198877
-0.197438   1.39907 -0.161331
 0.126498  -1.09723 -0.112056
 0.651356 -0.556479  0.144704
-0.513042 -0.111387  0.680098
-0.451086   1.21131 0.0382145
 0.179205   1.05022 -0.666511
-0.386573  0.769048  0.595284
0.0750651  0.381627  0.659177
 0.102791  -1.18939 -0.552022
0.358867 0.637974 0.748483
-0.485981 -0.292418 0.0329409
-0.225634 -0.261496  0.657628
 0.0680823  0.0617644 -0.0795967
 0.241547 -0.293194 -0.277284
0.475926 0.904676 0.667335
 0.228108  0.955868 -0.235724
-0.105421 -0.100905  0.716037
-0.316557 0.0744086 -0.501771
 0.335676   0.67796 -0.181748
0.294954  0.53177 -0.36616
-0.0236458    1.43864   0.309876
 -0.362404  -0.225212 -0.0193028
-0.0095397    0.10887  -0.952508
 0.238896  -0.86008 0.0362607
-0.658755 -0.284538 0.0917954
 0.180628 -0.202831  0.576879
-0.203044   -0.7818 -0.251109
-0.555495  0.401776   0.58778
-0.0390096  -0.594683   0.400567
 0.18881  1.10804 0.675134
 0.230298  -1.10009 -0.107921
 0.224109 -0.482511  0.591385
-0.670056 0.0779858 -0.269233
 0.212459 -0.362339 -0.286595
 0.050328  -1.05737 -0.145416
-0.00102403    0.745649   -0.782649
-0.386242    1.2577  0.171611
  0.182232 -0.0951779  -0.422101
  0.14856   1.37215 -0.202673
-0.478035  0.901987  0.452779
0.0580292 0.0836127  0.498914
-0.825447  0.281277  0.221958
 0.256592 -0.120012 -0.366573
-0.231134  0.399306  0.700269
-0.498821 -0.253025   0.20973
-0.0653867  -0.554835    0.42851
-0.304483  0.603343  -0.56761
0.232304  1.19482 0.637745
 0.23226 -1.27069 -0.15454
-0.181801 -0.283005   0.23177
0.0675948 0.0639388  0.167385
0.537922 -1.04407 0.264802
-0.0591062  -0.196308   0.425469
 0.215025  0.564902 -0.512277
0.405799 0.489147  0.16861
0.0993726 -0.251015 0.0909288
  0.475049   -1.62781 -0.0143795
-0.0833394  -0.028575  -0.864469
  0.144315 -0.0958542 -0.0886983
 0.120167  0.295343 -0.479409
 0.498602 -0.329538  0.331086
 0.469668 -0.516756 -0.561241
-0.129816 0.0839227 -0.890607
-0.774899  0.212198  0.381222
 0.283524 -0.656092  0.378108
-0.380871 0.0848312  0.448095
-0.162702  0.808315 -0.645397
-0.0677606  -0.424827  -0.647275
  0.11412  0.199951 0.0420461
 0.243223 -0.196406 0.0215571
-0.312535 -0.313375  0.168908
   0.459035    -1.43519 -0.00482787
   0.252535   -0.612521 -0.00390557
-0.549757 -0.222666  0.221768
 0.11062 0.114899 0.460087
 0.289143 -0.214199  0.862158
   0.1318 -0.148686 -0.106148
-0.841805  0.296556 0.0384958
 0.117718    1.1415 -0.672988
 -0.36737 -0.489077 -0.162608
-0.319267 0.0960368  0.513723
0.0677242  -1.11542 -0.519174
 0.605796 -0.908302  0.141578
-0.219314  -1.05313 0.0235358
 -0.301545  -0.166998 -0.0557786
-0.0451056  -0.240484  -0.881908
-0.708892  0.385598 -0.408627
0.0441328  0.183538 -0.141707
-0.253805   1.23518  0.418888
 0.144682 -0.310952  0.787749
 -0.612199   0.934093 -0.0996782
  0.16771 -0.746485 -0.282269
0.671858 -1.25062 0.202458
 0.0655845 -0.0124078     0.1627
 0.460338 -0.814218 -0.550736
-0.813988  0.347699  0.165122
   0.12357  0.0272799 -0.0111382
0.330305 0.549824 0.790467
  -0.318839   -0.924692 -0.00203422
-0.201418 -0.156842 -0.221485
-0.200463 -0.609386 -0.404068
 0.613001 -0.843725    0.1211
-0.123659 -0.237365   0.81587
 0.25611  1.33749 0.194788
-0.227208   1.21621   0.46799
0.299899 -1.08771 0.283314
-0.411344  0.143136 -0.510303
0.0161127  -1.30508 -0.336903
-0.234459  -0.51965  0.271085
 -0.130456 -0.0493667   0.709645
 0.185614 -0.259518 -0.551225
 0.515266  -1.38598 0.0679145
 0.458653 -0.748133 -0.610947
  0.234416  -0.538202 -0.0901346
0.0130265  0.387037 -0.578656
0.180254  1.20774 0.611908
-0.0157563  -0.391835   0.687181
-0.217415   1.37864  0.144865
 -0.338756 -0.0430949  -0.566192
-0.0989663   0.763112  -0.726516
0.0873358 -0.391923 -0.653619
-0.257532 -0.222576 -0.307121
 0.303133 -0.487328  0.103172
-0.448355  0.477846  0.659482
0.0256057  0.323276  0.631111
  0.249902   0.674384 -0.0281105
  0.114593    1.48059 0.00210114
-0.0330995   -1.09366  -0.434652
0.418273 -0.65029 0.360322
-0.349803 -0.136532  0.171201
 0.344433 -0.904136  0.290638
 0.57696 -1.11801 0.235399
-0.419125 -0.396108  0.152334
0.762396 -1.30391 0.130484
-0.0677249 -0.0659956   0.648833
 -0.44334  0.184145 -0.174351
 0.260995  -0.58608 0.0565689
-0.580165  0.320167   0.58294
 0.280648   1.00781 -0.419044
0.355301 0.725984 0.140254
  0.243977   -1.06734 -0.0429154
0.257573 0.105646 0.201234
-0.340812 -0.513094  -0.20964
  0.43456  -1.25541 -0.511206
 0.379587 -0.160784  0.261364
0.283087  1.24043 0.475027
 0.521402  -1.65315 -0.143999
-0.277517 -0.226442 -0.126283
-0.168203  0.868918 -0.640359
0.0239344   1.05178  0.669895
 0.0428469 -0.0750685    0.15703
-0.358561 -0.536497 -0.129675
0.192548  1.39376 0.315503
 0.119388 -0.134811  0.525794
-0.524496  0.939651  0.358654
-0.517755  0.966204 -0.317872
0.273791  1.31783 0.160423
-0.608606  0.938526  0.096778
 0.187339 -0.209016 0.0666848
 0.492128 -0.988988 -0.568164
0.307759  1.27775 0.210185
-0.186952 -0.421907  0.434182
 0.468405  -1.29433 -0.711858
-0.048956   1.02447 -0.715309
 0.454086  -1.48944 0.0822249
0.0411946 -0.235657 -0.179327
 0.569652 -0.748158  0.294171
 0.492371  -1.30645 0.0262974
-0.705389 -0.127363 0.0604732
0.00555111  -0.505147   0.526041
 0.240048  -0.21087 -0.200332
   0.255956 -0.00826865    0.182983
-0.0622262   0.325337  -0.536057
 -0.73591  0.570521 -0.214398
 0.405427 -0.604829  0.384757
0.0566719 -0.930587 -0.500488
 0.223518  0.817155 -0.161156
 0.409544 -0.109605  0.877976
 0.491068 -0.605632  0.105543
-0.403558   1.23784 -0.201469
  -0.375403   -0.712625 -0.00496926
 0.441649 -0.432834  0.422822
0.0379837  -0.47303   0.58198
-0.132225  0.485375 -0.744286
 0.186141  0.308446 0.0679172
0.075714  1.04191 0.674958
 0.225259  0.662897 -0.699996
-0.632999 -0.123668  0.553945
-0.242815 0.0660756  0.291915
 0.130821   1.24973 -0.456362
 0.308483  0.694868 -0.408786
-0.259031 0.0247704  0.766483
-0.244132   1.36405 0.0889003
 0.440944  -1.54272 0.0691139
 0.253935  0.461531 -0.409505
0.161026 0.337881 -0.47613
0.427077 0.831918 0.703627
   0.34459    1.07597 -0.0141439
0.422243 0.570982 0.766822
-0.00262024   -0.289194     0.79308
0.130309   1.4866 0.237366
  0.23293 0.0923897  0.356971
0.343588  -1.3527  0.21917
  0.141057 -0.0830595   0.175756
-0.263934 -0.689948 -0.162873
  0.4323 0.511207 0.427812
 -0.682784 -0.0579669  -0.598986
 0.144114 -0.528666  0.505777
  0.334211 -0.0306623   0.846102
0.244326 0.190824 0.175502
  0.064049 -0.0412893  -0.248487
-0.723738 -0.176667 0.0728424
-0.634417  0.112389 -0.267501
 0.281362 -0.143634  0.376276
-0.779459 -0.211153  0.202201
-0.403348  -0.39484  -0.11592
0.160011  1.06885 0.680688
  0.26347 -0.878059  0.292244
 -0.27335 -0.193482  0.164958
  0.452004 -0.0286235   0.795516
-0.378397  0.175731 -0.267313
 0.219907  -1.17526 -0.061179
-0.376677 -0.442254  -0.19921
  0.38705  -1.42394 -0.123529
-0.0341639  -0.209173  -0.638073
-0.161394 -0.349104  0.329114
-0.427746   1.09766 -0.359052
 0.065175  0.860037 -0.709282
0.396636 0.947165 -0.32909
-0.750713 -0.230199  0.218307
 0.178303 -0.979354  0.278625
 0.429285  -1.53996 -0.471103
 -0.473282 -0.0172994 0.00857906
-0.274277  0.844814 -0.575222
-0.507149 -0.059968  0.597778
-0.198889 -0.419335  0.390458
-0.414481 -0.062479 0.0071103
 0.309498 -0.646121  0.107936
 0.101189  0.134282 -0.294194
0.216738 0.270003 0.503515
-0.402015 0.0631558  0.502687
  0.25299 -0.251467 -0.220714
-0.0836142   -0.20882  -0.831479
 0.361272   0.59113 0.0348317
 0.415197 -0.210025  0.116562
 0.532433 -0.854403  0.100246
 -0.343939    1.32988 -0.0482858
0.469808 0.515802 0.270477
 0.212556   1.27433 -0.261543
 -0.3219  1.27567 0.234202
 -0.5364  1.09064 0.059737
0.858242 -1.45941 0.146008
 0.70269 -1.41007 -0.73687
-0.144058   1.10595  0.613523
-0.00251896    0.482296    0.714699
0.198546 -1.15607 0.269107
 -0.458596 -0.0244657  -0.613766
   0.120316 -0.00469683    0.182662
0.329658 0.306043 0.842231
0.354408 0.354867 0.288738
-0.0507582   0.982368   0.693879
 0.312749  -1.06056 -0.394651
0.480618  0.16382 0.811772
  0.248972   0.962239 -0.0213958
-0.339295 0.0984943 -0.109738
-0.207067 -0.183689  0.851019
 -0.32259 -0.664114  0.135562
 -0.512907  0.0747181 -0.0402963
 0.0162666 -0.0844213   0.575518
0.0881022  -1.32537 -0.255032
-0.103432   1.41763  0.254115
-0.185043 -0.150615  0.178538
-0.352488 0.0773816  0.789668
 0.0730792   0.136786 -0.0747723
-0.521727  0.278058  0.648484
 -0.421369  -0.483656 -0.0374919
 1.08363 -1.34345 0.108273
  -0.732128    0.698632 -0.00918332
  0.401672   -1.62501 -0.0947957
  -0.48862 -0.0824344   0.793403
-0.166271 -0.180725  0.616755
0.185835  -0.9433  -0.3075
 0.674441 -0.935232   0.18489
 -0.834281 0.00321396  -0.438706
-0.653027    0.8627  0.124059
  0.252978 -0.0154699   0.336326
-0.0865399   0.236973  -0.467863
 -0.581833 -0.0375935   0.729751
  0.42515   1.02825 0.0122589
 -0.29416 -0.256091 -0.314139
0.0905642  0.307016  0.599597
0.906362 -1.44552 0.113663
-0.096986  0.815116  0.716406
 -0.377686     1.2973 -0.0535451
-0.035905 -0.236209   -0.6906
 -0.924386   0.095819 -0.0234155
-0.512276   1.02091 -0.283925
 0.373029 -0.173461  0.106884
  0.452709 -0.0254769   0.881061
-0.893954 0.0433896  -0.26705
 0.227749   0.71025 -0.612665
0.0585704   1.33622  0.458519
0.504986 0.832218 0.241547
-0.178239  0.588502  0.709216
 0.175823  0.589044 -0.575486
 0.117141 -0.577362 -0.593764
 0.392807   1.08311 -0.115684
0.467131 0.999745 0.147845
-0.603598  0.972849 0.0173616
-0.560894   1.04673  0.062677
  0.290567   -1.13417 -0.0297731
 -0.339882  -0.125916 -0.0182537
-0.840488 0.0400726 -0.400583
 0.398954 -0.389839 -0.465581
0.360033 -0.20958 0.361878
0.259067  1.27638 0.475547
  0.188622   -1.41125 -0.0564499
 0.697395 -0.722582  0.246201
 0.379262  0.869806 -0.344322
 -0.555729 -0.0650576   0.541592
-0.246636 0.0112567  0.599305
 0.151418  -1.09018 -0.564652
 0.214956 -0.253285  0.762913
 0.107942   -1.1943 0.0371036
-0.777044 -0.114586  0.488815
-0.407717  0.610505  0.637574
 0.295928  0.712619 -0.514824
0.0763102  0.212053 -0.110734
-0.486617  0.990649 -0.355335
0.457331 0.994011  0.49627
0.249973 0.419555 0.744275
-0.898702   0.11637 -0.157275
 0.038491 -0.163055 0.0415588
  0.355972 -0.0330353   0.170736
 0.576447 -0.936584  0.253639
-0.139791 0.0985095  0.689264
0.136846 0.179887 0.471078
 0.401886  -1.05498 0.0729814
-0.729374  0.493194 -0.304499
0.459703 0.445056 0.631058
  0.43061 -0.167123  0.793348
 -0.410064 -0.0745078   0.674652
-0.0684195  -0.216841  -0.914666
-0.165078 -0.309927 -0.845656
 0.270223 -0.511913 0.0500887
 0.272745  0.602505 -0.512847
-0.230285   1.13594 -0.496596
 -0.822596   0.321896 -0.0820909
0.00486159  0.0651666  -0.128727
 0.422706 -0.178278  0.210408
 0.606407   -1.2755 0.0916178
-0.790227   0.43851  0.162339
-0.565856 -0.073631 0.0346737
0.205571 -1.28297 0.216354
-0.425863  0.758292 -0.482939
0.137571 0.215559 0.125721
 0.619885 -0.748067  0.131147
0.326111 0.762719 0.728333
-0.099939 -0.271847  0.455869
-0.844617  0.280397 0.0929107
-0.340931 0.0256273  0.612321
 -0.159401 -0.0600045  -0.942744
 0.143977  -1.30036 -0.243837
-0.153322  0.112779 -0.919811
 0.357344  -1.32778 -0.424589
-0.745969  0.403135 -0.318804
-0.242255 0.0946252  0.524806
-0.728893  0.556235  0.294647
  0.22731 -0.564126 -0.133487
     0.30849    -0.252682 -0.000963828
-0.607186 -0.121493 0.0421833
  0.140358   -1.12065 -0.0498995
 -0.829683 -0.0825154 -0.0582677
0.0135931  -1.03339 -0.471158
 0.368706 -0.346513 -0.555403
 0.160145 -0.157701 -0.468609
-0.255795 -0.518754 -0.435046
-0.280689 -0.571988 -0.277755
 0.226996  0.486189 -0.249919
0.0551551   1.39355 -0.319101
-0.328171  0.600425  0.666436
-0.353319 -0.240291  -0.73251
-0.640338  0.676032  0.389311
 0.345198 -0.264791  0.838205
0.463785 0.630961  0.20272
-0.687293 -0.124365  0.366421
-0.186219 -0.733242 -0.327446
  0.08955  0.566479 -0.851656
-0.412694   1.03227  0.443034
   0.26236    1.29534 -0.0525186
 0.345735  -0.67144 -0.644378
-0.572305 -0.180393 0.0384093
   0.27231   0.410973 -0.0305577
 0.430934  0.967955 0.0842802
 0.381558  -1.44361 -0.358297
 -0.65228  0.460843 -0.394135
 0.360125  -1.07193 -0.633223
-0.152612 -0.183445  0.845264
 -0.923982 -0.0104915  -0.184811
 -0.617946 -0.0776016   0.375353
-0.182156 -0.534922  0.321115
-0.0791049   0.042211  -0.987487
 0.542201 -0.327005  0.275702
-0.0610314    1.39552  -0.380941
 0.242452  0.623806 -0.568354
 0.360682  0.690976 -0.227883
 0.683347 -0.790677  0.210627
-0.100755   1.45637  -0.20357
0.124701 -1.27299 0.175178
-0.0478912  -0.460752  -0.611369
-0.038208   1.25635  0.515379
 -0.218399    1.40622 0.00637379
-0.142214 0.0417265  0.423466
0.0130473   1.51891  0.234868
-0.31934 0.375514  0.71789
-0.0369042    1.49757  0.0997897
 0.730381  -1.37451 -0.778496
 0.162107 -0.166673  0.144521
-0.230487   0.90756 -0.587343
-0.086157  0.630961  0.724928
0.0696324   1.37251 -0.334768
 -0.17617  -1.00792 -0.226031
0.118931 -0.44652 0.644075
 0.122145 0.0586226  0.194519
 -0.61387  0.577541 -0.350487
 0.346357 -0.870783 -0.616238
 0.599068 -0.624153  0.116133
-0.726332  0.694095  0.130817
 0.0941643 -0.0454846 -0.0829879
 0.242395 -0.319169 -0.194087
0.475122 0.503124 0.387323
0.435859 0.384161 0.668758
-0.0486069   0.233211    0.62208
-0.0711321  -0.699282   0.281042
 0.446337   -1.5652 -0.281241
-0.706873  0.665048  0.290735
0.273795  1.25028 0.427128
   -0.211099 -0.000420555     -0.49837
  -0.142174 -0.00637032    0.272469
0.387145 0.591331 0.110967
 -0.43812 -0.290788 -0.420939
-0.851234  0.175113  0.192148
-0.318279 -0.447963  0.224134
0.443674  0.49272 0.531405
 0.692958  -1.32154 -0.792257
0.0503809  -0.81872  0.298409
 0.52413 0.747241 0.360132
-0.687277  0.427661 -0.397927
 0.298595 -0.304621 -0.555806
-0.311464  0.777436 -0.567403
-0.748834  0.620707  0.162138
0.00569047    -0.4154   0.663172
-0.135548  0.204008 -0.935866
 0.269088  0.767952 0.0819353
 0.611596  -1.34435 -0.631898
 0.463957  -1.14556 -0.580155
 0.324245   1.17078 -0.155953
-0.343364 -0.604881  0.146091
-0.545825 -0.129167 -0.662787
-0.479093   1.15592  0.159744
0.492829 0.724891 0.183451
-0.114149 -0.299126  0.438941
 0.485744  -1.21903 0.0407237
-0.326045   1.30756  0.154071
 -0.215727 -0.0547039   0.778992
-0.155134   1.39424  0.185314
-0.303471 -0.777372  0.107759
-0.899448  0.124457 0.0475171
 0.203946 -0.183461  0.101957
-0.369366  0.905192 -0.502296
 -0.146585 -0.0502607   -0.50497
0.350838 0.387378 0.601045
 0.126016 0.0531163 -0.406041
-0.505778   1.09122  0.224086
-0.346849  0.431116  0.705772
0.576124 -1.13491 0.084418
  0.267911  -0.355766 -0.0754945
-0.714199 0.0253804 -0.121074
 -0.341172 0.00639998  -0.396238
-0.0699627   0.389516  -0.937779
 0.410492 -0.463036 -0.619494
0.339368  1.01313  0.11384
 0.253038  -1.34504 -0.191192
-0.233788   1.28593  -0.35926
0.507789 -1.42937 0.192094
-0.240427     1.375 -0.166712
 0.155307  0.612202 -0.784066
-0.177928 -0.128574 -0.910295
 -0.683784 0.00600104  -0.603602
 0.358818 -0.126326  0.777689
  0.387278 -0.0674095   0.192983
-0.315894 0.0817735  0.321765
0.461109 -1.37625 0.018393
 -0.826329 -0.0683998  -0.133883
-0.502691 -0.232969 -0.550091
 0.424811  0.909951 -0.314939
-0.326719 -0.100966 -0.622228
0.0876998 -0.957836 -0.517007
-0.290065  0.456571 -0.553778
-0.330557 -0.372298 -0.563359
 0.288698 -0.548831 0.0981837
-0.667569  0.545566 -0.338749
-0.659283  0.674181   -0.2719
   0.196926    0.321751 -0.00328072
-0.742131   0.60794  0.216801
-0.400729  0.561112  0.654661
  0.35669  0.778233 -0.179729
 0.463087 -0.396661 -0.521636
0.221632 0.985094 -0.68608
 -0.344252   -0.66814 -0.0720742
-0.591545  0.858389  0.321305
 0.523843  -1.21099 -0.667284
 0.331618  -1.35288 -0.333799
-0.807903  0.078489 -0.440211
-0.302788  0.111997 -0.241247
 0.247681 0.0473857  0.196744
 0.173561   1.31802 -0.263153
0.527094  0.52487 0.637467
 0.715688  -1.27622 -0.776981
 -0.856899   0.228868 -0.0131987
 0.797806  -1.29805 -0.727232
  -0.757765    0.590877 -0.00400001
-0.175869 -0.368334  0.507399
 0.339677   1.13287 -0.188194
-0.0531347    1.53072    -0.1365
-0.689914 -0.190243  0.277049
-0.790491  0.480577 0.0833881
0.310422  1.25048 0.080955
  -0.77409 -0.0792864  0.0285331
 0.522124  -1.26052 0.0386391
 0.29205 0.318711 0.499599
-0.578043 -0.182805  0.242782
0.481752 -1.66425 -0.32637
 -0.666803   0.849001 -0.0724497
 0.320428 -0.172878  0.084686
  0.46338  -1.65468 -0.408332
0.0270217  0.834137  0.729488
 -0.460169 -0.0966697  0.0217721
 0.024728  0.697052 -0.822294
 0.130147  0.817846 -0.689331
 0.410836 -0.266556  0.829477
 0.219318 -0.945149 -0.358395
-0.0227025    1.54397 -0.0898616
-0.144556  0.744321 -0.668264
0.440177 -1.05663 0.291683
 -0.15002 -0.310318   0.52108
0.0819596  -1.26723  -0.24216
0.0976703  -1.29245 -0.497583
-0.327887  0.303614 -0.481545
0.0601604   1.26767  0.517399
0.387419 0.351949 0.868262
-0.010583  0.640052 -0.852921
 -0.385698 -0.0647483  -0.614661
-0.237042 -0.635014  0.194522
-0.549383  -0.18911 -0.506573
 0.106787 0.0749477  -0.29899
 0.385745 -0.814052  0.114484
-0.432199  0.692243  0.594947
 -0.162841 -0.0773975   0.580656
-0.251724   1.33199  0.204341
0.00649466 -0.0830186  -0.480624
 -0.521429 -0.0502668  0.0267676
0.480322 0.407673 0.713464
-0.442393  0.875629 -0.449109
-0.454766 -0.326199 0.0277484
0.163698  1.36447 0.515779
-0.0694356   0.294902   -0.97035
  0.155534   0.284667 -0.0520104
  0.136981 -0.0712359  -0.431243
0.182563 0.412867 0.705812
 0.408577 -0.058135  0.899303
-0.757546  0.593681 0.0819135
0.0950922    1.0776 -0.725861
 0.293333 -0.428062 0.0823083
 0.671759 -0.595973  0.183064
-0.30778  1.10162 0.501045
  -0.762788 -0.00926318   -0.199969
-0.365897 0.0826425  0.500396
0.00218673   -1.24239  -0.251172
 0.411399 -0.405887  0.478038
-0.132546 -0.193806  0.582538
  -0.6869  0.187725 -0.498543
 0.146002   0.37478 -0.503339
 0.912016  -1.32699 -0.766415
-0.374526   1.19276 -0.340515
-0.776949  0.107582 -0.491691
-0.0701552  -0.390655   0.658275
-0.436058   1.16706 -0.270212
 0.365114 -0.302888  0.536467
  0.028453  -0.170369 -0.0827836
0.819672 -1.44903 0.202852
  0.20099 -0.164142  -0.45262
0.172763 0.864852 -0.68508
 0.239981 -0.198046 -0.250847
 0.121603   1.02629 -0.735868
  0.37358 -0.293568  0.488239
-0.0695718    1.37054  -0.486616
-0.586326  0.106179 -0.376051
 0.311972  0.614375 -0.267454
0.0810142   1.52897  0.211973
-0.509368   0.72115  0.541976
-0.171771   1.11937 -0.541098
 0.179011   -1.0019 -0.252597
 0.535988  -1.15064 0.0685131
 -0.607743   0.956206 -0.0511898
0.318367  1.23577 0.281992
0.0894466  -1.26397  0.150183
 -0.601759 0.00560457  -0.634355
-0.140806 -0.790719 -0.379024
0.424919 0.336609 0.864132
-0.347964   1.21956  0.333285
0.388095 0.960655 0.163084
-0.454941  0.280064  0.704686
0.203709 -1.46963 -0.40277
-0.0451287   0.501852   -0.89886
-0.231026 -0.724178 -0.207876
 0.375624  -1.44675 -0.254976
-0.0310768   0.301034    0.63159
0.453618  1.00425 0.437339
 0.0772636 -0.0696688   0.518646
 -0.364047  -0.632555 -0.0566001
-0.701636  0.195457   0.49291
 0.406014 -0.533944  0.413697
0.283343 0.240864 0.408248
 -0.758424 -0.0101717  -0.125258
 0.155923  -1.42779 -0.376946
  0.283262 -0.0563666   0.321492
 0.332698 -0.405135  0.632991
 0.39054 -1.20119 0.288612
0.417581 -1.47379 0.126066
-0.147664 -0.583004   0.30875
-0.135445   1.15609 -0.565381
 -0.18868 -0.555541 -0.458245
  0.210049   -1.24435 -0.0176141
 0.472766 -0.686932  0.337379
-0.236477   0.77245 -0.605518
-0.171946 0.0442579  0.304444
0.457996 -1.40457 0.223016
-0.0122836  -0.134249 -0.0950233
-0.0776592   -1.00654  -0.045212
-0.461557  0.575666 -0.465558
0.211365   -0.715 -0.14251
-0.121756   1.42779  0.139561
-0.0265341    1.22843   0.546724
-0.599093  0.115319  0.642945
-0.182121 -0.148446  -0.81041
0.165283 -1.05802 0.272933
 -0.34065  0.661058 -0.548342
0.292042 0.804945 0.741676
 0.332945  -1.14374 -0.403534
-0.673457 -0.312448  0.141302
-0.764132  0.279297 -0.362747
 0.282771  0.423359 0.0399306
-0.144473 -0.781231  0.181699
-0.185395 -0.108663 -0.570736
0.442626 -0.29692  0.37052
0.0895035  0.266162 -0.175172
0.780306 -1.40171 0.222039
 0.201143  -1.07984 -0.194615
  0.46971 -0.549358 -0.517429
0.381343 0.721568 -0.26216
 -0.548581    1.07435 -0.0152668
0.0364826 -0.753148    0.3175
 0.158892  -1.41377 -0.180689
 -0.229391    1.39728 -0.0993697
-0.172677 -0.485681  0.414869
0.0898564   1.21784  -0.63673
0.667565  -1.4708 0.200338
  0.212734  -0.780274 -0.0355612
 0.254435 -0.202642 -0.460807
-0.0396575    1.41911  -0.346181
 0.893039  -1.29131 -0.754737
 0.096613    0.5123 -0.655072
 0.295767 -0.926339 0.0808864
-0.299248 0.0709823 -0.313855
-0.287338 -0.645153  -0.16394
  0.173169   -1.24297 0.00802148
0.832677 -1.40482  0.21277
-0.737451  0.220793  0.438935
-0.105942  0.361116 -0.928266
 -0.511985 0.00129931   0.396695
 0.452644   1.00833 0.0750001
  0.361144      1.171 -0.0279862
-0.207209 0.0953771  0.375429
-0.114483  0.251344   0.66529
-0.82056 0.144234 0.308013
 0.174024   1.13402 -0.582882
 0.516449 -0.486129  0.339997
-0.0931431    1.39764  -0.319952
-0.456511  0.160027 -0.134304
 -0.259404  -0.137318 -0.0885151
0.0324296  0.481353 -0.887193
-0.301255 -0.091961  0.674427
0.0811554 -0.786766 -0.507021
-0.823662  0.267332 -0.144916
-0.546694  0.522653    0.5672
 -0.646165 -0.0254644  -0.636406
0.134365  1.47797 0.131585
-0.115677 -0.439055  0.559951
  0.205584  -0.818143 -0.0568683
 0.310491  0.836303 -0.237634
 0.689337  -1.36241 -0.659455
 0.506861    -0.948 0.0914396
 0.114987 -0.347268 -0.646949
  -0.40375    1.27284 -0.0255095
  0.217921   0.783885 -0.0629388
-0.0732145  -0.986413  -0.402329
0.502372 0.706285 0.108241
-0.372121 -0.362518 -0.226182
 0.499931  -1.66788 -0.284226
 0.455354  -1.19318 -0.576225
0.00091211  -0.155903  -0.547009
 0.237043   1.10182 -0.413812
 0.621021 -0.949032  0.116881
 0.473274  -1.06667 -0.651978
 -0.217894 -0.0130678   0.756069
0.0131538 0.0526194 -0.224921
 0.151474 -0.188133 -0.139832
0.455883 -1.44581 0.158246
-0.304482 -0.579318 -0.202712
  -0.57395    1.02444 -0.0345794
 0.186517  -1.31211 -0.240058
-0.237552   1.13903  0.533622
-0.222614 -0.351346 -0.725923
 -0.336584 -0.0354488 -0.0310344
-0.047571  0.374235 -0.574398
   0.088921 0.000346581     -0.4231
-0.302636  0.111282  0.396438
  0.384175   0.729314 -0.0986889
-0.212534   1.35833 -0.251374
-0.840483 -0.114324  0.221001
0.363017 0.299235 0.732643
-0.768296   0.39033 -0.242011
-0.390978 -0.343053 -0.111444
-0.0940026    1.02621  -0.686903
0.465891 -0.65142 0.102378
 0.439168  -1.70085 -0.275427
-0.390271 -0.655766 0.0992884
0.311411 -1.35321 -0.12605
0.181404 0.384452 -0.17041
-0.345252  0.533525 -0.534223
-0.613381  0.552923  0.481563
-0.567713  0.130845 -0.131249
 -0.24585 -0.572676  0.226255
-0.0261904  -0.721944    0.30016
0.477002 -0.76984 0.110097
  0.109249 -0.0693707  0.0135386
  0.106436 -0.0586095  -0.265551
-0.0862532   0.410276   -0.63609
-0.0812295   0.393019   0.687645
 0.212367  0.707006 -0.643789
0.368863 0.804806 -0.32443
 0.103419  0.240143 -0.246549
0.197425 0.792357 0.743345
 0.469399  0.882336 0.0779048
-0.447937  0.818952 -0.455486
0.800075 -1.34832 0.103914
 0.577956 -0.472315  0.103899
 0.32888  1.13237 0.654067
-0.0216765    1.30435   0.466061
 0.133962   -0.2042 -0.529076
0.0729286  0.496795  -0.84104
0.0510915   1.31305 -0.521006
 0.162362 -0.652268  0.393106
-0.0828552    1.39677   0.315904
 0.249152 -0.984471 -0.610746
-0.413838 -0.195197 0.0117975
  0.34769  0.565547 0.0919315
 0.413272  -1.01135 -0.474012
 -0.775486 -0.0299699  -0.314137
  0.28673  -1.21391 -0.305323
 0.0357186 -0.0841633  0.0608949
-0.108748 -0.103449 -0.950706
 0.295225   1.12042 -0.305799
0.485182 0.254131 0.797945
 0.296432  -1.03488 -0.628119
0.487314 0.554292 0.740113
-0.302635 -0.182242 -0.721394
0.433912  1.02227 0.619309
 0.263989   1.13004 -0.339855
0.318627 0.412153 0.178802
0.0350292   1.30073 -0.581792
-0.519256 -0.303355  0.197209
0.125374 0.594868 0.734144
0.0210759  0.576589  0.731543
 0.287201  -0.68189 -0.401278
-0.521607   1.04134 -0.236477
 0.219888 -0.347377  0.807612
0.725586 -1.33006 0.108421
  -0.67359 -0.0875389   0.635031
 0.355486  -1.62366 -0.235949
 0.345304  -1.53842 -0.462187
-0.328493 -0.281781 -0.323844
0.286072 0.357714 0.692978
0.0425122 -0.289266  0.780549
-0.654922 0.0550582 -0.370491
-0.0951148    1.33934  -0.502344
-0.541773  0.127958 -0.379115
-0.0435748  -0.193702   0.767435
  0.414075   0.657936 -0.0309805
 0.392018 -0.660882 -0.645354
-0.855957 0.0880062   0.22775
-0.349799    1.2583 -0.278805
-0.688686  0.315858   0.47123
 -0.40333 -0.251575 -0.678902
0.0453184  0.103872 -0.262829
-0.506253 -0.140984 -0.680745
-0.326335   0.65312  0.659139
 0.424852 -0.218751  0.276571
  0.236284 -0.0943341  -0.330711
-0.130203 -0.401832  0.606255
-0.490818  0.769457   0.52578
 0.175996  -0.83059 -0.171381
-0.730856 0.0203077 -0.185268
0.0185586   1.54569  0.103009
 -0.365713 -0.0481687   0.663706
-0.155087   0.98312  0.665996
0.338479 0.119628 0.212164
-0.122002   0.31655  -0.88591
-0.131377 -0.188925 -0.662908
-0.0640448  0.0705519   0.623136
0.142638 0.210057 -0.29345
-0.680545 -0.140198  0.531994
 0.552327 -0.971697  0.266265
 -0.279517 -0.0988944 -0.0559322
-0.611629  0.697209  0.434772
0.295052  1.24228 0.580999
0.357431 0.688455 0.729516
-0.462614   1.12742   0.25722
-0.384126   1.29088 0.0467669
 0.396981  -1.44621 -0.178171
-0.0684286  -0.166604   0.463399
-0.0161886     1.3497  -0.560917
0.0768852  0.196376 -0.256558
-0.145395 -0.119956  0.583853
0.173303 -1.21163 -0.59446
-0.098664   1.04112  0.661979
0.222922   1.0528 -0.55773
 0.146561   1.44179 -0.012293
-0.0767117   0.264745   0.642646
 -0.373322  -0.279848 -0.0187379
0.388665 -0.45133 0.482874
-0.190006 -0.336948  0.580647
  -0.23768 -0.0168561   0.611027
0.435695  1.02918 0.265501
-0.731774  0.451137 -0.331278
-0.199862  0.781267 -0.623102
 0.447835 -0.904876 -0.539763
-0.122389  0.582304 -0.788673
-0.343504  0.101572  0.410945
-0.284482 -0.224334 -0.785086
0.619328 -1.31477  0.23931
  -0.26588  -0.970696 -0.0848891
 0.245399   1.02421 -0.543345
-0.184018 -0.422621 -0.599295
-0.155911 -0.970879 -0.282003
0.0960564  -1.04709  0.255495
0.442656  1.05491 0.167329
  0.354713    -1.2211 -0.0217276
-0.180046   1.15292  0.562033
 0.360765 -0.925395 -0.621425
 0.353646 -0.297503 -0.507651
-0.651816  0.559353   0.42681
-0.641575   0.77198 -0.229586
-0.387273 -0.185082  0.174769
 0.120743 -0.773193 -0.532258
  0.22399   -1.2921 -0.240036
  0.286686   -1.31889 -0.0587549
-0.00446675   -0.330934    0.767448
0.0296961 0.0320464  0.539881
 0.301697 -0.156356  0.792301
0.750589 -1.46803 0.199808
 0.246522  -1.14278 -0.147822
-0.0409207   0.122842  -0.903469
-0.454812 -0.164589 -0.702408
 0.211722 -0.539256  0.484099
-0.843158  0.256536  0.157334
 0.142884  0.893687 -0.694251
0.0917874 -0.192398 -0.109812
 0.193363 0.0710584 -0.369261
  0.47851 -0.256639  0.274756
-0.373858 -0.336239  0.149207
 -0.356753 0.00488418   0.243351
-0.378999  0.230857  -0.49096
0.502949 0.803855 0.303669
 0.117845  -1.27671 0.0584051
-0.371486 -0.324357 -0.599804
0.106752 0.878657  0.72257
-0.127388   1.41959 -0.218192
-0.499708 3.332e-05    0.7781
-0.185034  0.889603  0.683869
-0.243228 -0.833693  0.122251
  0.41073  -1.25683 -0.672898
 -0.318403  -0.808556 -0.0496518
  -0.736605 -0.00446074   -0.332321
-0.882874  0.103966  0.141503
  0.20029    1.2247 -0.334746
-0.278633 -0.275202 -0.226507
-0.603953  0.198821   0.59892
-0.0805293   0.154817  -0.886499
  0.25243 -0.218943  0.805915
-0.118161 0.0317251 -0.879436
 0.481058  -1.41279 -0.592586
  0.20305  0.695078 -0.778421
-0.390875   1.11883  0.395157
0.431626 0.440484 0.315477
-0.506154  0.908199 -0.370351
 0.288183  0.501791 -0.407803
   0.401076    -1.24944 -0.00301311
 0.55311 -1.39449 0.251454
0.206596 -0.23675 0.631142
-0.616857  0.741791 -0.284884
 -0.38741 -0.231584 -0.411707
 -0.890804 -0.0284038   -0.29329
 0.44324 0.504721  0.21592
 0.11441 -0.83686 0.303424
 0.162425  -1.30991 0.0248175
 0.317196 -0.174808  0.367457
-0.0962366   -1.01617  0.0173876
0.376253 0.363241 0.351042
 0.285995 -0.246896  0.559304
 0.295088 -0.393445  -0.36101
  0.366624    1.15536 -0.0615771
0.507579 0.558111 0.517406
  -0.757808 -0.00789603   -0.257474
 0.462168 -0.509469  0.101146
 0.577324 -0.806491   0.28452
 0.460514 -0.716566 -0.525691
0.281882 0.139084 0.329978
0.0456543  0.323873 -0.519543
0.0595096 0.0475279 -0.265573
 0.560478 -0.344007  0.185023
 0.49384  0.75391 0.625779
 0.481489 -0.614018  0.347334
-0.782634 -0.174613  0.094543
0.0955439 -0.264533 -0.613126
-0.645082 -0.105875  -0.52622
 0.106601   1.25353 -0.527552
-0.0633267  -0.134651   0.426078
-0.819927  0.152496 -0.344689
 0.282729 -0.250184  0.762457
-0.054058 0.0183292  0.616304
0.290886 0.286049 0.245798
0.204177  0.18844  0.42946
  0.351428 -0.0821172   0.801795
-0.0668127  -0.177564  -0.605443
-0.415896 -0.641018 0.0275688
0.0318324    1.4884  0.325269
 0.390731   1.13272 0.0648649
 0.350357 -0.629064  0.112457
 0.412064  0.659755 0.0728563
  0.221702 -0.0649918  -0.394187
 0.431231  -1.53742 -0.321466
-0.858802  0.157778 -0.208852
0.0554068   1.02799 -0.746312
-0.0928461   0.424698  -0.668302
 0.516066  -1.39889 -0.724318
-0.148981 -0.742661 -0.387422
-0.358425   1.27958  0.189914
  0.193756 -0.0860065  -0.301678
  -0.23681 -0.0531042   0.627816
 0.100565   1.29315 -0.437401
-0.242407 -0.580726 -0.372701
 -0.366033 -0.0502193   0.843767
0.406585  0.46039 0.515922
 0.165032  0.443464 -0.502839
 -0.129299   -1.01572 -0.0355466
 0.341232 0.0590822  0.234152
0.0858567  -1.34675 -0.403481
-0.202108    1.0656  0.606554
-0.453799  0.302976 -0.482072
-0.162979   1.28552 -0.395654
 -0.255418 -0.0069981  -0.512658
 0.348143 -0.101268  0.904613
 0.486459 -0.941465 -0.565438
 0.515853 -0.263325  0.237373
  0.245442   -0.60329 -0.0702918
 -0.188998 -0.0715545  -0.896499
 -0.273569 -0.0624067    -0.3689
-0.295951  0.110184  0.499672
-0.0854132   -1.07533  -0.377567
0.180169 -0.85608 0.302011
 0.377476 -0.336955  -0.50402
0.488778 0.872364 0.275704
-0.190258  -1.05818 -0.147916
-0.663007  0.771319  0.295008
0.411528 0.854572 0.175044
-0.700936 0.0353545    0.6083
 0.413545 -0.403161 -0.591808
-0.753227 -0.136726  0.385718
 0.233707 -0.832004  0.302246
 0.373208   1.15962 0.0773744
  0.114925 -0.0729575   0.482366
    -0.602 -0.0652577   -0.66428
-0.417671   1.22473  0.189269
 0.128807  -1.22818 -0.566122
 0.338356   1.05557 0.0573142
0.305925 0.939307 0.733863
-0.434229  0.652643  0.610581
 0.297068  0.685478 -0.488413
 0.401772 -0.258861  0.786912
0.368305 -0.32782 0.575675
 0.170571 -0.307824 -0.599214
-0.236015 0.0585805 -0.487356
0.362376 0.807981 0.715405
 -0.834636 -0.0409606  -0.387428
  -0.789377    0.469001 -0.00170134
 -0.527978   0.122703 -0.0959648
-0.370628   1.28162  0.106811
 0.634005  -1.39972 -0.651966
 0.411499  -1.37391 -0.684268
  0.289386  -0.232165 -0.0229448
-0.105366 -0.145328 -0.582846
  0.68594 -0.619569  0.253913
0.0852567   -1.1032 0.0184504
-0.000817862    0.0560179    -0.435165
-0.827911  0.332758 0.0908504
-0.0643928    1.08494   -0.69569
-0.618087  0.114046 -0.327513
    0.3584 0.00871742   0.204965
0.490325 0.487198 0.623994
-0.242498 -0.299354  0.211269
  -0.61431 -0.0423068   0.703195
-0.418741  0.326975  0.716922
0.395867 0.183648  0.91455
-0.0505988  -0.504892   0.508275
 0.242243 -0.678532 -0.622888
-0.147408   1.30364  0.412702
-0.502028   1.14799 0.0188217
 -0.501661 -0.0588705  -0.667054
 0.607266  -1.35898 -0.768832
  0.250655  -0.642858 -0.0408921
0.0826817  0.505847  -0.70167
 0.331338  0.534883 0.0799541
0.370852  1.12969 0.610949
 0.531449  0.753345 0.0258677
-0.30382  1.14007 0.472173
  1.05956  -1.34424 0.0694697
0.039966 0.722079 0.740356
 0.399203  0.987314 -0.200232
 0.676371  -1.28806 -0.689141
-0.245814 -0.239726 -0.201063
-0.259919 -0.771702 -0.143489
  0.217079  -0.953655 -0.0701231
 0.179132 -0.876209 -0.155412
0.497881 0.615687 0.668568
-0.276302 -0.989216 0.0610526
 0.152723  0.319194 -0.107042
-0.0318533   0.829808  -0.735985
0.284344 -1.33282 -0.62772
-0.0794796   0.113363  -0.989205
-0.507838   1.13315 0.0593903
 -0.232645    1.40404 -0.0414207
0.101663 -1.18202 0.216309
-0.340821   1.13268 -0.430909
 0.280108   0.49326 -0.315091
 -0.26192  0.577578 -0.593109
  -0.56939 -0.0501975   0.477618
 0.529549  0.741864 0.0512802
  0.27454  -0.96323 -0.394818
0.471193 -0.40681 0.385501
-0.747208  0.470506 -0.257478
-0.600951  0.625449  0.478928
-0.244917 -0.725778  0.156089
 0.472194 -0.652068 -0.541953
-0.238686   1.21298 -0.434154
0.457732 0.466614 0.343614
 0.155653  -1.36077 -0.216618
-0.0202082   0.190217  -0.920919
 0.641264  -1.25077 -0.703244
 0.286467 -0.269369  0.644839
-0.0496038   -1.12225  -0.197263
-0.455517   1.03672 -0.365092
4.15121e-05     1.38365   -0.407749
-0.0355809  -0.626971  -0.502855
-0.617775 -0.158006  0.271146
-0.239336  0.426469 -0.568118
-0.225383 -0.462005 -0.518328
   0.15828   0.273446 0.00939797
-0.621662  0.844316 -0.199293
-0.370911 -0.264324  0.162088
-0.291874 0.0727412 -0.133387
-0.224702  0.233807 -0.460718
  0.419501     1.0887 0.00100171
 0.420323  -1.15995 0.0556117
 -0.492047 -0.0152525   0.298815
-0.430424 -0.104398  0.205033
 -0.38941 -0.411954 -0.301112
 0.460959 -0.510435 -0.481228
 0.258171 -0.654775 0.0590946
0.0357387 -0.698469   0.34766
-0.304172 -0.517717 -0.343732
-0.203799 -0.782031  0.156023
 -0.13664 -0.997264 -0.312952
  -0.7346 -0.145495  0.347788
-0.630056  0.177512 -0.508342
0.271018 -1.03891  0.28164
   0.209694    -1.43573 -0.00780423
-0.338815  0.135229 -0.302611
-0.116746  0.137122  0.669933
0.0530637  0.263773  0.580384
    0.308922 -0.000860918     0.175935
-0.144065 -0.837752 -0.353344
 0.240952  -1.13326 -0.259745
 0.145054  -1.02022 -0.557325
-0.594107  0.877052 -0.229787
-0.316987   1.17281  0.425799
-0.191663 -0.347303 -0.779556
0.0531224  0.439985 -0.614403
 0.604356 -0.643602  0.275265
-0.404375  0.010349 -0.425886
 0.253193 -0.516992   -0.3698
 0.201738 -0.407334  0.731101
 -0.400717  -0.346954 -0.0504654
-0.19921 -0.63651 0.218442
 0.411037 -0.873068 -0.475986
-0.152923  0.826016  0.703967
-0.629912 -0.085729  0.429924
 0.113122  0.723672 -0.805967
0.0217454 -0.618291 -0.532002
  0.417877   0.717093 -0.0249788
-0.181748 -0.379796  0.575743
 0.182897  0.453447 -0.455726
 0.321343 -0.639103  0.385447
-0.0726354   0.681605    0.72807
-0.230287 -0.221955  0.748732
-0.122515 -0.155821  0.809169
-0.822902 -0.121551  0.263935
 0.167969 -0.993736 -0.569545
-0.830585 -0.146548  0.171965
0.931943 -1.30781 0.136551
-0.0152106 0.00833321  -0.951937
-0.196359 -0.255578  0.719758
0.516229 0.843013 0.421838
-0.118864   1.44023 0.0766484
0.307786 0.495479 -0.11588
  1.03077   -1.4075 0.0841047
-0.278571  0.544931  0.686861
0.900017 -1.42266 0.188495
-0.0877482 -0.0587979   0.329949
 0.142727 -0.370053   0.78971
0.183961   1.1504 0.648514
 1.03426 -1.37603 0.132938
  0.225752    -1.3392 -0.0329956
 0.326047 -0.721913  0.337294
-0.286814 -0.101973 -0.604446
0.984512 -1.35805 0.162693
-0.287991 -0.136501   0.16543
0.319475 -1.40021 0.168158
 0.328164   0.59009 -0.133386
 0.303719 -0.495583   0.51496
-0.387048  0.145798 -0.135036
 0.341145   1.06303 -0.298595
 0.162845 -0.689927  0.365419
0.144238  -1.4197 -0.23839
 0.669549 -0.911866  0.222903
 0.283333 -0.987261  0.284959
 0.268169  0.872742 -0.265703
 0.507286 -0.775881  0.314688
0.282639 0.501828   0.7775
-0.0584134  -0.175655   0.322028
 0.464743 -0.757893 -0.565195
-0.707023 -0.255667  0.105503
 0.218932  -1.29112 -0.139034
  -0.71268 -0.0809696   0.595379
-0.763486  0.512734 -0.137348
-0.455617 -0.552354 0.0333241
0.650301   -1.087 0.217303
0.0595114 -0.134071 -0.079217
0.181541  1.41974 0.140892
 0.481458  -0.61163 -0.600497
-0.0324626   0.404298  -0.608763
  0.188642   -1.35552 0.00286071
 0.416435 -0.485293  0.432255
 0.601021  -1.27318 -0.664414
 0.428224  -1.63478 -0.447965
 0.332545   -1.1165 0.0343796
-0.0502118   -1.15925  -0.399358
0.319523  0.30936 0.455029
-0.156898   0.11386 -0.454749
-0.161067 0.0587323  0.367661
 -0.19597    1.2332 -0.436933
  0.247547   -0.54834 -0.0286442
 0.301837  0.795892 -0.521572
 0.430855 0.0814968   0.89447
 -0.86352  0.210312 0.0672812
-0.0964542  -0.495826   0.490801
0.0282647   1.54339 0.0104804
 0.376864   -1.6244 -0.149064
 0.498868 -0.878044  0.296487
0.781164 -1.47443 0.164565
 0.424444   0.72347 0.0213578
 0.14456 0.475719 0.719372
-0.104149   1.28542 -0.542634
 0.548253  -1.35768 -0.596999
 0.134494  -1.16114 -0.570326
0.377824 0.716411 0.076238
-0.587612  0.686878  0.474212
  1.07196   -1.3927 0.0853784
-0.248085  0.118758    0.4296
-0.421138 -0.251534 0.0129337
 0.256323 -0.737032 0.0717622
0.199004 0.596914  0.74952
  0.35174 -0.999874  0.287424
-0.841102 0.0120364  0.399324
 0.649426 -0.764715  0.241857
0.197299 0.541038 0.746123
0.425128 0.622618 0.734701
-0.591835  0.790736 -0.295785
-0.274083  -1.02617 0.0346971
0.0408935   1.24582 -0.642286
  -0.27105 0.00904154  -0.103748
0.290606 0.446803 0.111038
-0.109066   1.11489 -0.637273
 -0.502141 -0.0679924    0.25916
 -0.933684 -0.0522173 -0.0614206
 0.297456 -0.734177 -0.633988
 0.209781   1.05537 -0.592935
 0.273364  0.921497 -0.263614
-0.597854 -0.275547  0.218347
  0.4509 0.668046 0.663599
-0.819549 0.0484622  0.418752
-0.106681  0.359329  0.677383
 0.158339 -0.755112  0.333002
0.0753133 -0.106248 0.0231676
  0.369727 0.00523622   0.815934
 0.302993  0.585992 -0.332365
 -0.27911 0.0475597  0.269074
-0.684132 0.0132811  0.630757
 -0.343117  -0.844868 0.00425369
 0.353173   -1.5364 0.0509691
 0.262108  -1.07362 -0.365047
-0.351217  0.985385  0.537001
 0.427505 -0.903662  0.298046
-0.259622  0.948162 -0.559413
0.0170529 -0.391674 -0.675087
    0.1863 -0.0350816   0.402975
  -0.868796  -0.0946633 -0.00169351
0.311076 0.904646 -0.44392
-0.213766  -0.17716 -0.679235
-0.434395    1.2228 0.0963075
 0.414078 -0.620609 -0.646579
  0.26859  0.751204 -0.607038
-0.220601 -0.823598 -0.195444
 0.146516   1.46342 0.0893176
 -0.942995 0.00374033 -0.0311628
 0.480459  -1.68668 -0.228522
 0.310127  -1.23432 -0.342649
-0.047751  -1.02658 0.0422454
 0.417154  -1.51369 -0.274027
0.443991 0.401178 0.823488
-0.434334  0.845271   0.52859
-0.462816 0.0942646 -0.404257
 0.2698 1.31096 -0.0103
 0.364123 -0.584995  0.110224
 0.328504  0.786328 -0.406767
 -0.185975    1.42698 -0.0158187
 0.163701 -0.946013 -0.244748
-0.657814  0.349003 -0.444266
 -0.335239  -0.183215 -0.0302871
  0.45003 -0.682802 -0.658559
-0.173472 -0.105332  0.193223
-0.550804 0.0280912  0.728374
 0.453347  0.812394 -0.194655
 0.350219 -0.864822  0.108631
-0.137815 -0.358335 -0.766088
-0.0926561    1.26699  -0.580571
0.231669 0.908076 -0.18197
0.486293 0.825134 0.677271
 0.438654   -1.5307 -0.408169
-0.878408 0.0329342  0.207081
 0.350967 -0.421174  0.579785
0.0238575 -0.726211 -0.488183
-0.0941416  -0.271547    0.78072
0.0649586   1.30583  0.485802
0.516532 0.580764 0.397049
 0.422837  0.749808 0.0690391
 0.498707  -1.54739 0.0372869
0.0719108 -0.544959 -0.590487
0.870167 -1.37025  0.20234
  1.0263 -1.32869 0.122926
 0.213696 -0.723916  0.341025
0.112838  1.13577 0.622741
 0.414367  -1.06129 -0.634381
  0.52266 -0.648184  0.324999
0.629204 -1.20246 0.161767
  0.173856 -0.0318698   -0.40649
0.195809 0.514801 -0.48526
0.287109 0.229786  0.20598
0.117742  1.40874 0.424697
-0.828437  0.114436 -0.357778
0.297519 -1.43645   0.1238
-0.171917  0.181458  0.703583
 0.608288 -0.406202  0.155772
-0.420856  0.421118 -0.483373
0.263397 0.995871 0.723879
    0.484  -1.63688 -0.326247
 0.278644   1.20946 -0.193646
 0.22281  1.35256 0.315913
-0.350075 -0.472445 -0.324814
-0.474305  0.800719  0.518061
  0.123404 -0.0153955 0.00124453
 -0.54612 -0.294014 0.0465581
-0.102378   1.32382 -0.444979
-0.0666179   -1.12206  -0.394041
0.0413536 -0.361658   0.76048
  -0.34832  -0.777481 -0.0169202
-0.394144 -0.107172  0.191705
 0.125133 -0.279479  0.750022
-0.0167273  -0.023399  -0.456601
-0.111584  -0.84208   0.18314
  0.02348 -0.663959  -0.51278
-0.0636195  -0.324624   -0.80231
-0.458602 -0.160331  0.201914
 0.665161 -0.453714  0.140413
  0.50696 -0.716365  0.322698
 0.688998  -1.32679 -0.673975
 0.177755 -0.493681  0.561786
 0.408896  -1.57013 0.0244382
 0.408931 -0.251799  0.351079
0.328277  0.84136 0.206173
 0.629879  -1.42118 -0.728438
 0.413041 -0.638536  0.108376
-0.736981  0.590914  0.253435
0.473073 0.626654 0.250907
 0.291118 -0.654267 -0.636422
0.346051 -0.36628 0.712743
0.561848 -1.18902 0.238831
-0.0359571   0.367607   0.672758
 0.280022  -1.54323 -0.382496
-0.290243 -0.422743 -0.524852
0.498723  0.89212 0.434441
-0.554754   1.00308  0.227764
 0.633604 -0.509402  0.253954
 0.382815   1.03856 0.0459085
-0.433582   1.03877   0.41545
0.431931 0.515131  0.47022
0.417788 0.790832  0.13606
  -0.461574 -0.00894462    0.567758
-0.280831    1.3277  -0.23967
 0.159795  0.994528 -0.727209
 0.651244 -0.648549   0.26246
  0.43989   1.04031 0.0779877
-0.0904854   0.182429  -0.448462
-0.372209  0.934846  0.542993
0.0481831  0.529949  0.723575
-0.0827161    1.50051  -0.144996
-0.830286  0.241411  0.250367
-0.371366  0.365553 -0.484282
-0.230571 -0.170808 -0.827435
 0.515466 -0.423819 0.0999584
  0.110669   0.131062 -0.0165952
 -0.563519 -0.0472933  -0.672128
 0.327225 -0.552829  0.114033
0.473982 0.721839 0.604831
 0.270077 -0.360306  0.811824
0.0853553  0.373212 -0.541874
0.0525267 -0.663711  0.377083
0.240742 0.916363 0.736917
0.0666297 -0.868934 -0.501087
-0.518151   1.08587 -0.182259
-0.459828  0.990421  0.419908
   0.39467     1.1301 0.00119058
 0.382231 -0.258796 0.0904852
-0.0903297  -0.210225  -0.684617
-0.758582  0.539945  0.209908
0.622345 -1.24074 0.109251
-0.176948 -0.892855  0.141049
  0.29467   1.02999 -0.208158
0.0795073  -1.11842  0.234049
 0.125171 -0.911276  0.283878
0.492727 -1.56708 -0.11135
 0.23075 -1.02854  0.27989
-0.00125754   -0.310012   -0.731521
 0.32091 0.865674 0.738724
0.256339  1.13265 0.669504
-0.187877  0.431613  -0.59867
0.522678 -1.43743 0.138271
0.385568  1.14327 0.191356
0.0628008 -0.618967  0.416684
 0.247713   1.16879 -0.327102
  0.14335  0.113589 -0.320333
0.560393 0.746868 0.529518
-0.0824161  -0.197982   0.815301
 0.648921 -0.495631  0.127145
-0.17237 0.317528 -0.51508
 0.655582 -0.882194  0.158984
 0.47969 0.334302 0.793912
  0.254808   -1.30304 -0.0391759
  0.393694   -1.38804 -0.0588838
 -0.52418  0.822568 -0.376257
 0.444626  -1.21094 -0.502885
 0.176985 -0.276378  0.779827
0.0809262   1.27576 -0.545481
 0.255543   1.20459 -0.268242
 -0.508885    1.13358 -0.0409056
-0.0156312   0.903575  -0.709425
 0.645469 -0.404102  0.226115
 -0.377036 -0.0292942    0.22303
 0.181219 -0.893706 -0.569409
-0.118528  -1.03871 -0.333605
-0.404079 -0.304614 -0.587544
-0.588583  0.365528 -0.450666
-0.205745  0.929737 -0.595894
 -0.695223 -0.0159657   0.627924
 0.27721 -1.38781 -0.58065
-0.557662  -0.35023 0.0726663
-0.0636443  -0.250071  -0.754042
-0.0518997  -0.148816   0.708804
-0.394866  0.880182 -0.488406
 0.475069 -0.414202 -0.587207
0.364648 -1.30758 0.261512
0.0927439  -1.04584 -0.523776
-0.588336  0.985122 0.0789362
   -0.497904 -4.80879e-06     -0.60588
-0.117934 -0.526393 -0.522801
-0.401204 -0.148723 -0.708225
 0.203728 -0.562033  -0.20523
0.199457 0.293331 0.118583
-0.757491  0.479589 -0.205394
0.0718109 -0.619519 -0.554693
 0.47964 0.201638 0.801062
 0.449924 -0.570904  0.371271
-0.260729   0.77531  0.671398
 0.335137   1.16916 -0.117936
  0.228408   0.868599 -0.0429625
-0.147612  -1.04317  0.107564
-0.803602  0.035528  0.464485
0.0450095 -0.439273 -0.642534
  0.44024  -1.68395 -0.231737
-0.204024  0.647308  0.702091
0.620714 -1.17441 0.175874
 -0.320543 -0.0684738    0.66965
-0.518782  0.191116 -0.229946
-0.645261  0.850082  0.226958
  0.249211   0.966324 -0.0966995
0.0228715   -0.3911  0.708778
-0.155412 -0.312579  0.273431
 -0.134236 -0.0312011    0.25669
 -0.293404 -0.0875342  -0.394145
 0.334107  0.743507 -0.360879
-0.410753  0.159559  0.768965
-0.161291 -0.631751  0.249504
0.143615 -1.33328 0.123006
 0.468373  -1.69674 -0.154367
 0.191479  -1.20476 -0.122651
-0.175058  -0.11194  0.802095
 0.342266  -1.23819 -0.386598
 0.397634 -0.163324  0.858893
-0.861784 0.0267708  0.269188
0.235944 0.133345 0.370113
0.287544 0.808858 -0.58157
-0.151388  0.644339 -0.707225
-0.848473   0.07649 -0.347463
 0.286575   0.85034 -0.589763
0.629387 -1.24756 -0.73848
 0.561323  -1.06893 0.0885654
-0.0873449  -0.667516  -0.458913
0.272168 0.147056 0.187933
-0.479838   1.05111  0.329434
-0.0921125  -0.142274   0.533453
-0.172087   1.30944 -0.363023
-0.851919  0.217342  0.157986
-0.0916716    1.50178 -0.0530836
 0.49714 0.536464 0.351497
-0.361804   1.17133  0.371676
  0.83716  -1.34319 -0.787328
0.171017 -1.24278 0.222024
0.726213 -1.46828 0.122293
0.290084 0.728499 0.744692
 0.392159  -1.28065 -0.451178
 0.646572  -1.30288 -0.776911
 0.184074  -1.46589 -0.345636
 0.328109  0.639867 -0.169605
-0.497393  0.115155  0.724252
-0.442927   1.20003  0.148018
0.0250098 -0.910803  0.256564
 -0.242083 -0.0351744  -0.294094
-0.0201998  0.0807407  -0.919221
 0.315138  0.756005 -0.180041
-0.0765484  -0.767674   0.237287
0.206332 -1.19962 0.258963
 0.229147  0.785694 -0.642445
 0.410181 0.0786481  0.801539
0.059543 0.039146 0.111737
 0.176776 0.0432381 -0.330628
-0.0224638   0.416585  -0.754914
-0.155957 -0.152074 -0.612113
 0.158369   1.22046 -0.430137
 0.404426  0.656524 0.0240346
0.581447 -1.26821  0.24336
-0.344014 -0.292314 -0.702418
  0.23443 -0.881541 -0.602229
 0.400933 -0.318366 0.0993502
-0.076367 -0.824524  0.211583
-0.42284  1.08263 0.388889
-0.537366  0.166606 -0.338983
0.281853 -1.55266 -0.19764
0.310755 -0.40068 0.680641
 0.423931 -0.566105  0.105431
0.104036  1.09435 0.648967
 -0.115334 -0.0711795   0.244285
-0.664425   0.60797 -0.302076
-0.0728539  -0.219936   0.297579
 0.632902 -0.876431  0.244974
 0.265474  0.485944 -0.203095
-0.166688 -0.826342  0.160284
-0.116588  0.979599 -0.666576
  0.35973  -0.83338 -0.440075
-0.828383  0.178415 -0.275832
