   0.0250569 -0.000457177      1.00045
-0.00518595  -0.0116682     1.00016
-0.0173098 -0.0301364    1.00072
 0.0100675 0.00398235    1.00027
 0.0296198 -0.0216865     1.0008
 0.0637704 -0.0222373    1.00249
0.0486028 0.0125248   1.00143
 0.0203499 -0.0344767    1.00089
-0.0246194 0.00693461    1.00055
-0.00328067  -0.0482949     1.00131
 0.0744336 -0.0352638     1.0034
 0.036103 0.0317009   1.00195
 0.0507754 -0.0309096    1.00185
-0.0307653  0.0312233    1.00112
-0.0560348 -0.0489648    1.00307
-0.0603716 -0.0301726    1.00267
-0.0256479 -0.0561327    1.00194
  0.0786644 -0.00986125     1.00325
 0.097408 -0.016871   1.00496
  0.105442 0.00631022    1.00577
0.0780094 0.0321413   1.00365
 -0.0710309 -0.00321021     1.00267
-0.0631228   0.026375     1.0025
-0.0423431 -0.0761578    1.00391
-0.0262222 -0.0762024     1.0034
  0.012516 -0.0541936     1.0016
 0.0619538 -0.0390533    1.00269
 0.108929 0.0456176   1.00724
0.0366465 0.0507888   1.00214
 0.0332898 -0.0510001    1.00191
  0.044791 -0.0403396     1.0019
-0.0227449  0.0608923    1.00241
-0.0828606 -0.0216711    1.00399
-0.0965189 -0.0618824    1.00678
-0.0171136 -0.0854083    1.00394
0.0877795 -0.044195   1.00486
  0.102584 -0.0349222    1.00597
  0.130633 -0.0335318    1.00909
   0.140182 -0.00209956     1.01011
 0.145481 0.0259515   1.01094
0.0906332 0.0810706   1.00768
 0.0111076 -0.0705658    1.00264
-0.0820893  0.0677161    1.00612
 -0.110532 -0.0293695    1.00664
-0.0123441  -0.101031    1.00519
-0.031649 -0.116971   1.00759
-0.000970811   -0.0869975      1.00381
 0.0682838 -0.0559009    1.00389
  0.122097 -0.0480135    1.00864
 0.128994 0.0813008   1.01196
0.0351592 0.0923021   1.00513
0.0589377  0.081513   1.00567
-0.00473941   0.0580933     1.00179
0.0184983 0.0815304    1.0038
  0.026842 -0.0614583    1.00233
 0.0436034 -0.0658726    1.00312
 0.0446863 -0.0522887    1.00241
-0.0831894  0.0922712    1.00809
-0.0874326  0.0554754    1.00568
-0.0719126  0.0411056    1.00363
-0.127307 0.0240734   1.00847
-0.0948629  -0.102924    1.00998
 0.0567989 -0.0472741    1.00274
0.0738951 -0.048449   1.00392
0.0923545 -0.053522   1.00572
 0.165098 0.0684129   1.01627
 0.180762 0.0294902   1.01691
0.113417  0.11772  1.01368
0.0958541  0.127814   1.01292
0.0145851  0.100704   1.00537
-0.0390877   0.106657    1.00655
-0.0372609   0.116984    1.00758
-0.074824  0.114811   1.00968
-0.104462 0.0728108   1.00846
-0.146917 -0.011641   1.01092
 -0.148468 -0.0294033    1.01175
-0.116123 -0.113978   1.01351
 -0.136203 -0.0634655    1.01137
-0.0822259  -0.126863    1.01151
-0.0490196  -0.138413     1.0109
-0.0122776  -0.126707    1.00825
 0.0793217 -0.0543993    1.00462
0.0862411 -0.064646   1.00581
  0.096276 -0.0618717     1.0066
  0.128212 -0.0620483    1.01017
 0.192819 -0.016217   1.01869
  0.186174 0.00352019    1.01729
 0.196973 0.0436976   1.02066
0.153145 0.110694  1.01827
0.123981 0.140682  1.01753
0.0730346  0.147513   1.01388
0.0412102  0.126859    1.0092
 0.0106893 -0.0887111      1.004
 0.0189635 -0.0848674    1.00378
 0.0203651 -0.0745113    1.00302
  0.033727 -0.0735078    1.00329
 0.0432829 -0.0781984    1.00407
 0.0544534 -0.0791721    1.00468
-0.062673  0.147221   1.01286
-0.0525666   0.132248    1.01032
-0.0898805   0.133736    1.01312
-0.112368  0.122868   1.01393
-0.123793  0.119444   1.01493
 -0.187957 0.00646628    1.01756
 -0.176337 -0.0689734    1.01824
 -0.165159 -0.0425334    1.01497
-0.0419148  -0.163692    1.01429
0.00803778  -0.114892    1.00663
0.000907401    -0.10937     1.00599
 0.0558653 -0.0593254    1.00333
 0.0794272 -0.0720102    1.00583
 0.0737255 -0.0638396    1.00484
  0.10928 -0.064835   1.00824
 0.139637 -0.077721   1.01295
  0.163848 -0.0738267    1.01632
  0.187944 -0.0563945    1.01915
 0.176112 -0.033923    1.0161
0.138926 0.155517  1.02164
0.106037 0.153907  1.01773
0.00742265   0.141033    1.01015
0.0224692  0.127236   1.00878
 0.0396216 -0.0912494    1.00497
0.0295386 -0.085401    1.0041
 0.0485802 -0.0938367    1.00557
 0.0541035 -0.0899655     1.0055
-0.0486693   0.159586    1.01401
-0.0337531   0.134617    1.00985
-0.159115  0.136728   1.02185
-0.138974  0.128867   1.01814
-0.139832 0.0471619   1.01108
 -0.166575 0.00893372    1.01413
 -0.198605 -0.0958664    1.02439
-0.164398 -0.110726   1.01997
  -0.1255 -0.148053   1.01929
-0.0869189  -0.148861    1.01491
-0.015993 -0.157932   1.01263
0.0135828 -0.120331   1.00739
0.00510887  -0.128605    1.00837
 0.0082544 -0.0998536    1.00502
 0.0604339 -0.0662319    1.00409
 0.0763323 -0.0791653    1.00613
  0.102776 -0.0790429    1.00847
   0.12364 -0.0948625    1.01218
 0.225533 0.0101484    1.0256
 0.225245 0.0700236   1.02773
 0.191512 0.0863355     1.022
0.0361808  0.182957   1.01744
0.0510898  0.179183   1.01734
0.0253701  0.168813    1.0149
 0.0230017 -0.0967344    1.00496
 0.0637337 -0.0910047    1.00617
 0.0664395 -0.0793691    1.00546
 0.0616786 -0.0714838    1.00457
-0.0115969   0.162042    1.01326
-0.0622363   0.179448    1.01814
-0.0983223   0.170219    1.01937
-0.0830244   0.162766    1.01675
-0.141339  0.152291   1.02178
-0.142277 0.0951596    1.0147
-0.158128 0.0556125   1.01422
-0.179527 0.0299664   1.01713
-0.202423 0.0148599   1.02052
 -0.212751 -0.0494102    1.02406
-0.175599  -0.14391   1.02575
-0.095412 -0.183678   1.02126
-0.0325903  -0.203307    1.02112
0.0156839 -0.139269   1.00994
 0.0893548 -0.0785395    1.00706
  0.109031 -0.0975231    1.01074
  0.180613 -0.0980502    1.02121
 0.251445 0.0354188   1.03205
0.173333 0.191999  1.03331
0.074049 0.197527  1.02292
0.0924322  0.186507   1.02219
-0.00259007    0.178534     1.01594
0.0177297 -0.102657   1.00541
 0.0306045 -0.0929006    1.00479
0.0411584 -0.103391    1.0062
0.0462275 -0.107969   1.00689
0.0594017 -0.102613   1.00702
-0.031268  0.185095   1.01767
-0.0443315   0.194275    1.01987
-0.129707  0.182664   1.02485
-0.111344  0.161567   1.01924
-0.123686  0.173822   1.02269
-0.158252  0.179147   1.02837
-0.177564  0.168695    1.0297
-0.183195  0.110499   1.02282
-0.17422  0.07533  1.01862
 -0.223242 -0.0101361    1.02494
 -0.243041 -0.0310696    1.03003
 -0.239334 -0.0884567    1.03247
-0.225007 -0.126977   1.03295
-0.120983 -0.185256   1.02463
-0.0726252  -0.188606    1.02038
-0.0537917  -0.202686    1.02196
-0.0236279  -0.192717    1.01872
0.0184527 -0.151565   1.01167
0.0260817 -0.118403   1.00734
 0.024351 -0.110794   1.00644
 0.0760276 -0.0962036    1.00751
0.0852596 -0.085666   1.00729
 0.0984611 -0.0990561     1.0098
 0.107992 -0.142733   1.01623
 0.176262 -0.123499   1.02325
  0.220589 -0.0786221    1.02748
  0.226682 -0.0401735    1.02654
  0.251066 -0.0267808    1.03177
0.203483  0.12189  1.02801
0.162778 0.163515   1.0265
 0.12855 0.201625  1.02839
0.0995012  0.198076   1.02509
0.0405525   0.21765   1.02447
0.0397436  0.202394    1.0212
0.00518579   0.211343    1.02224
0.0310201 -0.102375   1.00573
 0.0761546 -0.0887991    1.00683
-0.0138075   0.221181    1.02461
-0.0184414   0.188277    1.01802
-0.064074  0.216654   1.02541
-0.0716914   0.201653    1.02269
-0.125484  0.201461   1.02785
-0.152914  0.192364   1.02993
-0.170636  0.134062   1.02349
-0.188548  0.160103   1.03028
-0.189028    0.1395   1.02767
-0.215722 0.0381104   1.02397
-0.231086 0.0537601    1.0281
-0.244049 0.0128579   1.02998
-0.267388 -0.050854   1.03665
-0.327367 -0.158779   1.06476
-0.282319 -0.121264   1.04747
-0.233136 -0.162825   1.04018
-0.281374  -0.15503    1.0519
-0.198198 -0.191914   1.03794
-0.152106 -0.172379   1.02623
0.0102309 -0.196689   1.01978
0.0278577 -0.125889   1.00836
  0.18525 -0.152972   1.02914
 0.282057 0.0212486   1.03958
 0.312537 0.0102781   1.04846
  0.26382 0.0869989   1.03822
0.238727 0.112596  1.03465
0.283079 0.135562  1.04897
0.226008 0.160776  1.03799
0.193527 0.161327  1.03134
0.192672 0.230903  1.04463
0.204581 0.248626  1.05086
0.189902 0.210769  1.03958
0.150516 0.226324  1.03666
0.124796 0.223268  1.03265
0.0770621  0.237488   1.03079
-0.0824509   0.217717    1.02689
-0.10933 0.197731  1.02537
-0.161848    0.1998   1.03267
-0.210755  0.121304   1.02943
-0.212427  0.101764    1.0278
-0.24949 0.074229  1.03352
 -0.298835 0.00680721    1.04471
 -0.277902 -0.0172454    1.03873
 -0.274397 -0.0819097     1.0403
-0.329694 -0.121382    1.0606
-0.154413 -0.225285   1.03678
-0.0520194  -0.242021    1.03046
0.0386305 -0.174368   1.01607
 0.033265 -0.143671   1.01099
0.0905391 -0.106027   1.00974
 0.251338 -0.141215   1.04094
 0.250098 -0.100301   1.03571
  0.277642 -0.0751364     1.0412
 0.339886 0.0288953   1.05722
 0.323157 0.0735568   1.05512
0.325506 0.165037  1.06584
 0.292372 0.0975044   1.04706
0.274163 0.162961  1.05017
0.156233 0.258206  1.04488
0.122519 0.246102  1.03757
0.102352 0.258731  1.03804
0.0785567  0.268762   1.03861
0.0583219  0.270158   1.03768
0.0456849  0.262138   1.03504
0.00102509   0.239683    1.02848
0.0347456 -0.114524   1.00716
0.0530009 -0.114572   1.00796
 0.070242 -0.104589   1.00797
-0.0197355   0.233918    1.02731
-0.0517088   0.236874    1.02917
-0.171424  0.211085   1.03643
-0.202709  0.190647    1.0382
-0.20925 0.156457  1.03376
-0.215984  0.144927   1.03339
 -0.23921 0.0966095    1.0331
-0.289562 0.0712327   1.04367
-0.266641 0.0415524   1.03595
-0.288917 0.0587037    1.0428
-0.303045 0.0354794   1.04582
 -0.322774 -0.0165642    1.05171
 -0.302465 -0.0492209    1.04647
-0.360747 -0.137447   1.07242
-0.284259 -0.192178   1.05841
-0.346574 -0.190362   1.07625
 0.016602 -0.250905   1.03182
0.0416611 -0.121259   1.00821
0.0893999 -0.128428   1.01236
0.0687831 -0.177277   1.01812
  0.10086 -0.190401   1.02333
 0.158296 -0.182506   1.02898
 0.235977 -0.185759   1.04468
 0.244729 -0.216347   1.05277
   0.35961 -0.0980928    1.06891
 0.308882 -0.107557   1.05316
  0.310764 -0.0401714     1.0491
   0.37083 -0.0420558    1.07092
  0.36666 0.0849977   1.06919
0.358633 0.151259  1.07377
0.313681 0.197838  1.06678
0.243187 0.189121  1.04681
 0.23392 0.207913  1.04787
0.243302 0.226746  1.05418
 0.17634 0.277216  1.05289
0.142414 0.273585  1.04688
0.113183 0.303427  1.05141
0.105746 0.276807   1.0433
0.0344639  0.267544   1.03588
0.000967776    0.264266     1.03465
0.0652216 -0.112388   1.00844
-0.0216506   0.263777    1.03458
-0.0377746   0.249148    1.03144
-0.0976893   0.227223    1.03026
-0.0943074   0.237067    1.03223
-0.116204  0.216501   1.02983
-0.156159   0.22236   1.03645
-0.200945  0.201986   1.03992
-0.243137  0.167969   1.04287
-0.239036  0.141699   1.03799
-0.235177   0.12273   1.03497
-0.280937 0.0961019   1.04349
-0.260036 0.0934297   1.03765
 -0.348914 -0.0743958    1.06206
 -0.328964 -0.0901918    1.05696
-0.395961 -0.147199   1.08577
-0.248792 -0.233669   1.05733
-0.105767  -0.24759   1.03576
-0.0654008   -0.27836    1.04032
-0.0560442  -0.329615    1.05475
0.0164395 -0.293703   1.04266
 0.055233 -0.138395   1.01123
0.0754571 -0.139317   1.01257
 0.081619 -0.116511   1.01023
  0.15676 -0.217675   1.03616
 0.186332 -0.237725   1.04606
 0.296028 -0.167813   1.05696
 0.39634 -0.15535  1.08742
  0.392257 -0.0478216    1.07785
0.384848 0.134111  1.08051
 0.36072 0.194521  1.08184
0.331006 0.225829  1.07737
0.278047 0.211335  1.05976
0.223817 0.265682  1.05906
0.191847 0.289381  1.05866
0.119896 0.295889  1.05004
0.138768 0.289092  1.05059
0.0624875  0.304152   1.04723
0.0272886   0.28312   1.03984
-0.00567646    0.282036     1.03925
-0.0242894   0.278947    1.03851
-0.0768444    0.25264    1.03465
-0.059879  0.255097   1.03381
-0.184645  0.222928   1.04113
-0.258489  0.111222   1.03919
-0.338912 0.0473082   1.05708
 -0.33983 0.0248573   1.05675
 -0.354558 -0.0374202    1.06203
 -0.364806 -0.0117101    1.06469
-0.391503 -0.105186   1.07965
-0.302607  -0.24697   1.07451
-0.187158 -0.264345    1.0526
0.0606036 -0.276458   1.04035
0.0610247 -0.124676   1.00968
0.0984258 -0.245687   1.03581
 0.236567 -0.271755   1.06369
   0.3322 -0.176889   1.06876
 0.448726 -0.160748   1.10907
  0.429961 0.00379505    1.09157
0.26558 0.26556 1.06846
0.139181 0.313948  1.05746
0.0277228  0.313225   1.04842
-0.00631931    0.299776     1.04415
-0.0368367   0.271238    1.03688
-0.0962974   0.254509    1.03666
-0.13588 0.234427   1.0361
-0.236742  0.192023    1.0456
-0.258636  0.153896   1.04442
-0.288757  0.144691   1.05091
-0.307421    0.1007   1.05134
-0.340757   0.06307   1.05851
-0.373874  0.011422   1.06817
 -0.385432 -0.0545917    1.07361
 -0.418948 -0.0979712    1.08891
 -0.37867 -0.212371   1.09176
-0.339183 -0.289332   1.09542
-0.245439 -0.283268   1.06895
-0.151461 -0.293195   1.05398
-0.107431 -0.334609   1.06138
-0.0485496  -0.380803    1.07171
0.00793167   -0.36809    1.06595
0.0612167 -0.334763   1.05696
 0.087952 -0.345845   1.06209
 0.378779 -0.244335   1.09816
 0.435228 -0.101813   1.09603
  0.463476 -0.0472199     1.1048
 0.406399 0.0670986   1.08198
 0.425902 0.0408034   1.08964
0.446461 0.134855  1.10445
0.379809 0.222802  1.09309
   0.278 0.242833  1.06621
0.254329 0.284724  1.07105
0.182842 0.303915   1.0611
0.117921 0.327768    1.059
0.0898398  0.315842   1.05279
0.0422483  0.328263    1.0534
-0.00405165    0.311975     1.04771
-0.126908  0.250922   1.03883
-0.170277  0.243322   1.04326
-0.273816  0.164782    1.0499
-0.323243 0.0795267   1.05418
-0.389657 0.0350119   1.07431
-0.296702 -0.325783   1.09358
-0.149047 -0.341907   1.06955
0.000543529   -0.439058      1.0933
0.0497925 -0.396834   1.07738
  0.13193 -0.301098   1.05391
0.172364    -0.34  1.07051
0.287792 -0.28454  1.08002
0.329969 -0.27076  1.08799
 0.405388 -0.220115   1.10219
 0.495887 -0.201748   1.13455
 0.498245 -0.151306   1.12857
0.447346 0.196461  1.11356
0.338736  0.26684  1.08967
0.306542 0.292829  1.08633
  0.3059 0.250155  1.07547
0.222712 0.299654  1.06769
0.193352 0.323222  1.06877
0.170116 0.323789  1.06489
0.106541 0.336702  1.06065
0.0957635  0.336572   1.05974
0.0849435  0.341797   1.06027
-0.031525  0.305766   1.04623
-0.0684001   0.278784    1.04056
-0.143545  0.242734   1.03904
-0.189939   0.24046   1.04598
-0.199126  0.230946   1.04557
-0.223352  0.222344    1.0486
-0.240723  0.216126   1.05131
-0.260207  0.195353   1.05175
-0.286882  0.159584   1.05258
-0.306858  0.127673   1.05386
-0.334035  0.104656   1.05976
 -0.410863 -0.0122702     1.0815
  -0.42239 -0.0674531    1.08807
-0.408813 -0.177402   1.09505
-0.338398 -0.364249   1.11956
-0.206891 -0.344338   1.08104
-0.103797 -0.407093   1.08535
 0.106485 -0.468777   1.11144
0.0773145 -0.426922   1.09128
 0.177796 -0.398985   1.09195
 0.232183 -0.320265   1.07598
 0.273737 -0.367349   1.10022
 0.460385 -0.227335   1.12429
 0.482009 0.0823485   1.11532
0.520499 -0.02533  1.13107
0.429889  0.22788  1.11339
0.260379  0.32335    1.083
0.239845 0.341066  1.08393
0.220177 0.354082  1.08373
0.157832 0.336172  1.06684
0.0903178  0.358463   1.06623
0.0341893   0.35011   1.06028
0.0143708  0.339477   1.05641
-0.00605998    0.331476     1.05362
-0.0550234    0.30815    1.04796
-0.0560563   0.292752    1.04363
-0.102691  0.273679   1.04201
-0.0950709   0.285304    1.04447
-0.113881  0.267706   1.04155
-0.146578  0.260545   1.04379
-0.193845  0.260227   1.05144
-0.229166  0.245685   1.05502
-0.286402  0.181338   1.05595
-0.311168  0.170156   1.06134
-0.360891 0.0689373   1.06552
-0.460236 -0.108497   1.10647
-0.458147 -0.140664   1.10922
-0.394229 -0.279519   1.11144
-0.309989 -0.396871   1.12017
-0.255959 -0.441961   1.12487
-0.169031 -0.399269   1.09137
-0.229804 -0.390959   1.09949
-0.107446 -0.461708   1.10703
-0.0487213  -0.481577    1.11195
0.0433994 -0.494979   1.11729
 0.193909 -0.468672   1.12289
0.325922 -0.41496   1.1307
 0.373688 -0.338088   1.12039
0.532323 -0.12677  1.14114
  0.556673 -0.0814422    1.14901
0.511423 0.146616  1.13324
0.289954 0.313776  1.08784
0.286145 0.352639  1.09846
0.267288 0.374336  1.10083
0.204921 0.342096  1.07667
0.153473 0.352506  1.07156
0.120345 0.353053  1.06737
0.0704146  0.367101   1.06775
-0.0348453   0.325718    1.05242
-0.0979813   0.303608    1.04979
-0.134422  0.275535   1.04608
-0.154643  0.275522   1.04881
-0.20876 0.255955   1.0532
-0.252937  0.235717   1.05822
-0.273243  0.214711    1.0587
-0.290153  0.210673   1.06246
-0.309533  0.149292   1.05767
-0.349279  0.122536   1.06654
-0.435053  0.110099   1.09638
-0.380024  0.102352   1.07549
-0.387667 0.0725881   1.07525
-0.426835 0.0480768   1.08868
-0.414559  0.085327   1.08654
-0.425349 0.0111179   1.08704
 -0.45992 0.0202263   1.10101
 -0.446587 -0.0448548    1.09637
-0.473942 -0.177231   1.12187
-0.428168 -0.225056   1.11158
-0.166514 -0.453819   1.11185
-0.0727537  -0.547975    1.14336
-0.0067308   -0.55327    1.14367
 0.239826 -0.413343   1.10914
 0.566816 0.0449091   1.15097
0.370162 0.337608  1.11874
0.402973 0.270598  1.11252
0.383643 0.298983  1.11316
0.228984 0.406007  1.10346
0.169672 0.355398  1.07488
0.112026 0.376897  1.07477
0.0848252  0.377178   1.07226
0.0498052  0.376298   1.06985
-0.0293858   0.343103    1.05784
-0.0863449   0.304531    1.04896
-0.175458   0.27559   1.05216
-0.200424  0.293084   1.06163
-0.223167  0.280539   1.06237
-0.218281  0.265432   1.05751
-0.240504  0.286466   1.06789
-0.31203 0.210864  1.06869
-0.377425   0.14047   1.07836
-0.470286 -0.030191   1.10579
-0.495753 -0.208955   1.13668
 -0.40873 -0.366415   1.14354
-0.176024 -0.534524   1.14811
-0.121914 -0.512166   1.13088
0.0961815 -0.553496   1.14822
 0.180536 -0.534619   1.14894
 0.387761 -0.397492   1.14487
 0.443403 -0.320312   1.14055
 0.553328 -0.277352   1.17692
 0.533008 -0.234637   1.15765
 0.560363 -0.191818   1.16278
0.581473 0.221139  1.17962
0.539169 0.178748  1.15169
0.32262 0.33674 1.10343
0.265772   0.4151  1.11525
0.212718 0.380841  1.09126
0.162426  0.38788  1.08492
0.129891 0.374221  1.07568
0.0787262  0.397403   1.07902
0.0303363  0.394353    1.0754
-0.07379 0.348103  1.06151
-0.0842876   0.329023    1.05617
-0.124693  0.308189   1.05399
-0.198723  0.310314   1.06637
-0.261579  0.270461   1.06878
-0.304888  0.253021   1.07595
-0.290483  0.248654   1.07095
-0.330361  0.225485   1.07734
-0.334872   0.19917   1.07353
-0.353942   0.17317   1.07506
-0.34523 0.149464  1.06864
-0.401303  0.132171   1.08563
-0.425786  0.143787   1.09673
-0.455159  0.073136   1.10208
 -0.508851 -0.0289457    1.12294
 -0.497155 -0.0771247    1.11965
-0.535496 -0.124418   1.14187
-0.471376 -0.286176   1.14327
-0.365174 -0.474376   1.16639
-0.307713 -0.506517   1.16419
-0.064991 -0.610842   1.17423
 0.013071 -0.619959   1.17804
  0.25651 -0.507591   1.15151
 0.306485 -0.478007   1.15035
 0.458568 -0.426824   1.18079
 0.505975 -0.351833   1.17527
 0.636531 0.0651548   1.18795
0.563567 0.274514  1.18078
0.508702 0.263961  1.15295
0.462163 0.310122  1.14502
0.316653 0.433053  1.13567
0.329224 0.485282  1.15952
0.297067 0.404065  1.11908
0.180258  0.38383  1.08631
0.139582 0.403728  1.08775
0.146283 0.430088  1.09847
0.0480593  0.399329    1.0781
0.000876508    0.395212     1.07541
-0.0503044   0.345229    1.05925
-0.13652 0.336077  1.06408
-0.124692  0.335329    1.0623
-0.209887  0.331124   1.07443
-0.236256  0.329269   1.07918
-0.23509 0.309389  1.07304
-0.280151  0.280744   1.07624
-0.273228  0.256706   1.06819
-0.321269  0.253979   1.08091
-0.339718  0.247932   1.08517
-0.387399   0.17717   1.08731
-0.499034  0.113712   1.12444
 -0.48115 0.0394112   1.11097
-0.513663 -0.247264   1.15217
-0.255632 -0.541545   1.16891
   0.1437 -0.630111    1.1912
 0.219125 -0.648786   1.21409
 0.376856 -0.488551   1.17543
 0.457343 -0.495827   1.20679
 0.616388 -0.215081   1.19537
 0.629141 -0.055347   1.18432
0.716072 0.195849  1.24559
0.647861 0.147017   1.2017
0.627175 0.199923  1.19874
0.428313 0.375689  1.15139
 0.32699 0.375755  1.11751
0.250586 0.444096  1.12295
0.118974 0.421481  1.09238
-0.0386556   0.394465    1.07587
-0.0299901   0.368581    1.06637
-0.0233386   0.389445    1.07375
-0.0573445    0.36799     1.0674
-0.0838697    0.37443    1.07146
-0.110232  0.346049   1.06396
-0.12218 0.358981  1.06959
-0.137965  0.313489   1.05719
-0.161775  0.328529    1.0651
-0.166658  0.301156   1.05762
-0.161106   0.31005   1.05933
-0.183872  0.321927   1.06677
-0.216976  0.346589    1.0805
-0.238168  0.359604   1.08932
-0.280452  0.338971   1.09286
-0.269254  0.363752   1.09801
-0.254704  0.350578   1.09014
-0.271527   0.31841    1.0843
-0.280212    0.3047   1.08256
-0.350927  0.297833   1.10116
-0.34324 0.262275  1.08952
-0.381449  0.253411   1.10007
-0.38285 0.212186  1.09212
-0.405629  0.211201   1.10039
-0.413318  0.177999   1.09701
-0.45401 0.156884  1.10982
-0.465632  0.119851   1.11013
-0.554353  0.105007   1.14868
-0.515663 0.0728287    1.1282
 -0.592941 0.00758615    1.16344
 -0.530927 0.00562592    1.13281
-0.552466 -0.052256   1.14386
-0.490566 -0.437235   1.19913
-0.13838 -0.59818   1.1757
-0.223523 -0.594929   1.18767
-0.0502222  -0.691046     1.2181
0.0858678  -0.63713   1.18926
 0.246013 -0.589447   1.18762
 0.340759 -0.611204   1.22101
  0.36651 -0.562439    1.2061
 0.553357 -0.393338   1.21052
 0.624746 -0.295957   1.21654
 0.743599 0.0955308   1.25178
0.533593 0.338416  1.18331
0.483728 0.378898  1.17407
0.366422  0.39305  1.13545
0.332146 0.551781  1.18989
0.265533 0.482332  1.14251
0.190164 0.448969  1.11307
 0.19217 0.425924  1.10442
0.0946108  0.435085   1.09492
0.0615319  0.452347   1.09961
0.0663298  0.429372   1.09064
0.0215834  0.423809   1.08653
-0.0079768   0.405462    1.07921
-0.0596706   0.388753     1.0749
-0.0914641   0.364351    1.06856
-0.105995  0.368922   1.07152
-0.131893  0.374713   1.07632
-0.175423  0.350098   1.07398
-0.231013  0.396632   1.10046
-0.310121  0.324194    1.0962
-0.311986  0.300248   1.08978
-0.366693  0.291376   1.10444
-0.425221  0.236746    1.1124
-0.449581  0.190154   1.11296
-0.507366  0.159127   1.13302
-0.549088  0.137133   1.14935
-0.623501  0.131402   1.18608
 -0.59431 0.0552871   1.16633
 -0.576841 -0.0991303    1.15944
-0.583017 -0.163969   1.17044
-0.517611 -0.341963   1.17851
-0.590007 -0.438357   1.24243
-0.456646 -0.495205   1.20612
0.0198494 -0.700288   1.22137
 0.146308 -0.724083   1.24402
 0.317379 -0.656894   1.23816
 0.446063 -0.620536   1.25924
 0.505774 -0.528482   1.24002
 0.588603 -0.450145   1.24544
 0.653507 -0.404906   1.26222
  0.65875 -0.349282   1.24827
   0.7189 -0.224402   1.25294
 0.679409 -0.129898   1.21822
 0.694219 0.0245007   1.21809
0.857558 0.141123  1.32694
0.693474 0.325388  1.26076
0.644696 0.293551  1.22601
0.599017 0.324285  1.21047
0.426575 0.448022  1.17714
0.441588 0.491295   1.1995
0.375351 0.437587  1.15513
0.425145 0.558435  1.22202
0.360446 0.589333  1.21599
0.306839 0.521005  1.16956
0.211981 0.475544  1.12782
0.149815  0.49266  1.12507
0.141777 0.461312  1.11077
0.0759989  0.489018   1.11606
0.0219658  0.447404   1.09593
-0.000924057     0.451678      1.09751
-0.0328958   0.431987    1.09004
-0.0352276   0.420248    1.08549
-0.124688  0.397387    1.0835
-0.119851   0.40922   1.08718
-0.153068   0.40092   1.08849
-0.171429  0.392922   1.08821
-0.158557  0.367977   1.07751
-0.195109  0.373109   1.08525
-0.206287  0.363983   1.08424
-0.260151  0.387989   1.10383
-0.302047  0.380729   1.11232
-0.304603  0.355474   1.10461
-0.343746  0.323105   1.10581
-0.389554  0.275093   1.10795
-0.447136  0.218748   1.11737
-0.488006  0.194171   1.13026
-0.484076  0.225672   1.13416
-0.567473  0.162906   1.16201
-0.633721 0.0833185   1.18729
 -0.679021 -0.0205652    1.20966
-0.623069 -0.235005   1.20229
-0.580201 -0.280583   1.19082
-0.373847 -0.580004   1.21598
-0.157134 -0.679282   1.22065
-0.110538  -0.77259   1.26864
-0.0111565  -0.785162     1.2718
0.0932573 -0.770874   1.26706
 0.264725 -0.732271   1.26782
 0.408125 -0.690414   1.28209
 0.519083 -0.604782   1.27971
 0.644595 -0.552578   1.31325
 0.587667 -0.530149   1.27646
 0.816415 -0.102576   1.29563
  0.734147 -0.0252485    1.24237
 0.958028 0.0862584   1.38892
0.785097 0.217727  1.29248
0.767823 0.302924  1.29764
0.565048 0.409006  1.22065
0.626005 0.391154  1.24362
0.469138   0.6111    1.263
0.268581 0.546811  1.17214
0.123208 0.482592  1.11786
0.104591 0.479259  1.11451
0.0573978  0.502412   1.12078
0.0277358  0.476635   1.10832
-0.030212   0.45126   1.09778
-0.0748103   0.438177    1.09481
-0.195355  0.401023   1.09512
-0.215397  0.414206   1.10372
-0.259222  0.408989    1.1112
-0.262008  0.443227   1.12485
-0.325727  0.342622   1.10619
-0.398731  0.336113   1.12802
-0.376663  0.321784   1.11624
-0.427606  0.285399   1.12474
-0.456507  0.261485   1.13024
-0.523075  0.226055   1.15189
-0.591126  0.186088   1.17746
-0.690053 0.0459123    1.2169
 -0.620693 -0.0443184    1.17876
-0.662518 -0.189669   1.21511
-0.664379   -0.3176   1.24312
-0.637806 -0.378876   1.24571
-0.615008 -0.571662   1.30761
-0.438693 -0.588955   1.24144
-0.334232 -0.659936   1.24593
-0.242467 -0.697558   1.24579
 0.120773 -0.853643   1.32132
 0.217433 -0.785765   1.29087
 0.751346 -0.302394   1.28823
  0.80843 -0.355298   1.33561
 0.805424 -0.192158   1.30067
   0.832677 -0.00494733     1.30242
  0.900899 -0.0469602    1.34716
0.887474 0.274209   1.3668
0.967333 0.373048   1.4425
0.796228 0.400175  1.34038
0.688986 0.421491  1.28724
 0.66284 0.513017  1.30654
0.615172 0.465844   1.2642
0.506732 0.487047  1.22332
0.419575 0.688377  1.28475
0.348439 0.638983   1.2376
0.301302 0.588158  1.19925
0.197479 0.499163  1.13571
0.0723218  0.549979   1.14403
0.0522559   0.52307   1.13006
0.0141276  0.490073   1.11378
-0.00105689    0.503983     1.12011
-0.0264519   0.467521    1.10442
-0.0560827   0.460356    1.10251
-0.0895247   0.450048    1.10067
-0.116553  0.423778   1.09259
-0.283123  0.443762   1.13045
-0.281142  0.405729   1.11537
-0.332147  0.439434   1.14185
-0.308473   0.41802   1.12738
-0.352621   0.38833   1.12947
-0.326144  0.392363   1.12276
-0.410289  0.305956   1.12352
-0.454158  0.286182   1.13521
-0.494019  0.263713   1.14632
-0.549422  0.266929   1.17206
-0.608594  0.223426   1.19273
-0.56488 0.226732  1.17163
-0.646604  0.164053   1.20271
-0.730137   0.12846   1.24717
-0.753341 0.0274928   1.25255
 -0.775903 -0.0433086    1.26685
-0.696964  -0.10995   1.22554
-0.775374 -0.135322   1.27379
-0.741349 -0.314633   1.28527
-0.688369 -0.462392     1.301
-0.704872 -0.550591   1.34393
-0.545044 -0.607728   1.29321
-0.225899 -0.807337   1.30991
0.0188701 -0.867171   1.32417
 0.355649 -0.742797    1.2958
  0.51688 -0.707699   1.33112
 0.834355 -0.598967   1.43437
 0.735113 -0.408759   1.30784
 0.919592 -0.281795   1.38989
 0.989231 -0.112808   1.41485
0.568022 0.512934  1.26124
0.536439  0.59071   1.2809
0.501949 0.707516  1.32592
0.194437 0.555898  1.16157
0.231776 0.573962  1.17669
0.152567 0.532679  1.14407
0.093158 0.551883  1.14632
-0.00318277    0.533234     1.13356
-0.0395062   0.528842    1.13204
-0.0352419    0.49594    1.11706
-0.0652216   0.485718    1.11384
 -0.1048 0.469665   1.1102
-0.119586  0.444225   1.10116
-0.14334 0.435132  1.10002
-0.135177  0.457224   1.10815
-0.160357  0.436781   1.10308
-0.183827  0.427747   1.10326
-0.213395  0.431616   1.11001
-0.227667  0.448706   1.11951
-0.248177  0.453223   1.12581
-0.312895  0.458495   1.14387
-0.347344  0.412233   1.13632
-0.375967  0.394523   1.13916
-0.407685  0.374022   1.14287
-0.373528  0.352688   1.12448
-0.426251  0.340278   1.13928
-0.48579  0.32503  1.15884
-0.520521  0.326921    1.1741
-0.531292  0.296638   1.17126
-0.644138  0.244625   1.21495
-0.718872  0.229795   1.25356
-0.762456  0.185231   1.27324
-0.695862  0.182814   1.23358
-0.85379 0.107639  1.32024
-0.781219 0.0846462   1.27261
-0.877856 -0.173917   1.34556
-0.871245  -0.26348   1.35672
-0.757548 -0.228884   1.27825
-0.801286 -0.510394   1.37983
-0.528559 -0.707625   1.33737
-0.449106 -0.745361   1.32781
-0.308942 -0.791235   1.31662
0.0889128 -0.958792   1.38971
 0.201517 -0.861809   1.33596
 0.339066 -0.820485   1.33857
 0.457886 -0.774269   1.34545
 0.583018 -0.685705   1.34578
 0.729622 -0.589291   1.37176
 0.760302 -0.494411   1.35167
 0.852672 -0.520372   1.41575
0.824612 0.531513  1.40205
0.844648 0.646555  1.46087
0.765859 0.599256  1.39621
0.547934 0.825366  1.40991
0.434251 0.778142  1.34029
0.332325 0.696195  1.26447
0.227022 0.602959  1.19007
0.184144 0.591113  1.17696
0.124481 0.561716  1.15438
0.149267 0.603053  1.17797
0.0446039  0.562436   1.14855
0.0404012  0.608034   1.17125
0.00501175   0.563658    1.14831
-0.0606147   0.516375    1.12724
-0.0873621   0.491389    1.11788
-0.15082 0.482514  1.12101
-0.192882  0.467472   1.12099
-0.231992  0.495126   1.13996
-0.277531  0.483942   1.14525
-0.298334  0.487459   1.15193
-0.341033  0.463377   1.15401
-0.364884  0.477226   1.16695
-0.409135  0.402449   1.15344
-0.452013  0.368711   1.15775
-0.453589  0.344413   1.15104
-0.489557  0.349116   1.16739
-0.572267  0.305903   1.19324
-0.594119  0.353864    1.2166
-0.644273  0.289352   1.22485
-0.703693  0.266484   1.25264
-0.972087   0.20757   1.41114
-0.832576  0.204016    1.3188
-0.901453  0.170121   1.35856
 -0.905972 -0.0705889    1.35336
 -0.81655 -0.353089   1.33943
-0.772047 -0.657103    1.4259
-0.394516 -0.799817   1.34157
 -0.23992 -0.909064    1.3757
-0.0872311  -0.903119    1.35148
0.0345228 -0.985055   1.40627
0.179537 -1.00523   1.4307
 0.278521 -0.840892   1.33603
 0.552575 -0.783806   1.38645
 0.629798 -0.728679   1.38867
0.688474 -0.67715   1.3904
0.375674 0.793301  1.33229
0.306409 0.728555  1.27633
0.107458  0.59952  1.17177
0.0664829   0.60405   1.17046
-0.0326086   0.558465    1.14601
-0.0720132   0.569963    1.15359
-0.112835  0.494977    1.1218
-0.147132  0.507442   1.13124
-0.122556   0.51419   1.13148
-0.171747  0.484542   1.12501
-0.217222  0.470434   1.12644
-0.273744  0.516824   1.15885
-0.305587  0.515678   1.16608
-0.326981  0.504238   1.16677
-0.382097  0.443718   1.15936
-0.378159  0.466631   1.16707
-0.402527   0.42646   1.15977
-0.440479  0.391054   1.16106
-0.534432  0.399062   1.20256
-0.581108  0.384785   1.21941
-0.543593  0.359446   1.19416
-0.612307  0.318613   1.21585
-0.66721 0.322817  1.24562
-0.761518  0.287372   1.29131
-0.737283  0.335275   1.28848
-0.899701  0.294833   1.37865
    -0.9201 -0.00414154     1.36248
-0.899954 0.0656735   1.34947
-0.877053 -0.421436   1.39639
 0.242401 -0.956763   1.40568
 0.378088 -0.946339   1.42796
 0.46577 -0.85501  1.39658
 0.731701 -0.749983   1.44911
0.448294 0.882013  1.40759
 0.20044 0.651668  1.21155
0.231532 0.677298  1.23107
0.158232 0.648342  1.20313
 0.12659 0.666459   1.2091
0.00829645   0.604864    1.16912
-0.0329769   0.598481    1.16622
-0.0695976   0.611869    1.17504
-0.0928105   0.581599     1.1606
-0.0813849   0.537151    1.13842
-0.12335 0.543586  1.14536
-0.174859  0.574086   1.16635
-0.152453  0.540757   1.14758
-0.195971  0.526704   1.14737
-0.218443  0.507194   1.14256
-0.256029  0.493204   1.14434
-0.383494  0.503284    1.1837
-0.425136   0.50484   1.19937
-0.419553  0.476072   1.18506
-0.433392  0.439262   1.17538
-0.464249  0.400608   1.17342
-0.491581  0.390726   1.18123
-0.521775   0.45454   1.21648
-0.693865  0.371255   1.27333
-0.793773  0.370635   1.33037
-0.829266  0.305992   1.33631
-0.985418  0.289938   1.43459
 0.305416 -0.906855    1.3843
 0.394756 -0.870582   1.38421
  0.49742 -0.930261   1.45434
 0.612746 -0.817272   1.42976
0.231598 0.755144  1.27446
0.258711 0.719443  1.25929
0.172625  0.73092  1.25193
0.0818772  0.640028   1.19032
0.0528286  0.667265   1.20383
-0.00151736    0.639888     1.18733
-0.0450295   0.623794    1.18002
-0.0962629   0.620359    1.18101
-0.121668  0.574508   1.16018
-0.144053  0.574242   1.16269
-0.176061  0.524789    1.1432
-0.241949   0.53271   1.15876
-0.349642  0.535304   1.18724
-0.330916  0.559572   1.19328
-0.373449  0.522991   1.18892
-0.429565  0.538096   1.21459
-0.481057  0.502278   1.21875
-0.507196  0.483014   1.22145
-0.472022  0.445666   1.19292
-0.457465  0.465555   1.19502
-0.558299  0.478608   1.24162
-0.545942  0.437568   1.22094
-0.592173  0.415476   1.23464
-0.607219  0.444044   1.25259
-0.643763  0.384463   1.25077
-0.770365  0.411026   1.32852
-0.800153  0.469346   1.36465
-0.863093  0.444097   1.39428
0.278826 0.819195  1.32386
0.193771 0.815029  1.30561
0.134005 0.773024  1.27174
0.113823 0.696364  1.22464
0.0743455  0.713136   1.23104
0.0842449  0.763742   1.26211
0.0211234  0.674719   1.20679
-0.0532956   0.686244    1.21498
-0.0287869   0.660869    1.19982
-0.0986796    0.66746    1.20684
-0.204807  0.552378   1.16081
-0.215894  0.577725   1.17515
-0.236018  0.578762   1.17941
-0.293618  0.606948   1.20688
-0.280914  0.549692   1.17545
-0.326226  0.592578   1.20766
-0.299172   0.56707   1.18839
-0.373294  0.592635   1.22118
-0.374213  0.558679    1.2054
-0.398514  0.564148   1.21566
-0.455026  0.551768   1.22996
-0.489821   0.52877   1.23293
-0.669421  0.471141   1.29347
-0.694755  0.415803   1.28808
-0.731316  0.457309   1.32168
 0.325233 -0.984377   1.44053
0.243986  0.90706    1.373
0.124078 0.812962  1.29585
0.0431941  0.764099   1.26012
0.00551781    0.70074    1.22148
-0.0847023   0.692754    1.22004
-0.129686  0.680931   1.21709
-0.126533  0.619705   1.18345
-0.14426  0.64274  1.19762
-0.175061  0.608054    1.1838
-0.212169  0.633821   1.20346
-0.256733  0.637059   1.21337
 -0.2378 0.612156  1.19702
-0.261795  0.569557   1.18081
-0.285573  0.629891   1.21632
-0.336922  0.639648   1.23423
-0.342371  0.611459   1.22134
-0.42655 0.573655  1.22942
-0.529214  0.543053   1.25524
-0.562615  0.526065   1.26271
-0.640583  0.553085   1.31045
-0.60841 0.505025   1.2753
-0.73232 0.511571  1.34147
-0.887577  0.553261   1.44869
-0.828696  0.528276   1.40329
0.175417 0.893662  1.35381
0.169208 0.853798  1.32734
0.0124933  0.820429   1.29405
0.00740133   0.772207    1.26422
-0.0120209   0.729608    1.23812
-0.0546016    0.73229    1.24098
-0.0428693   0.761465    1.25803
-0.0936862   0.727697    1.24063
-0.160869    0.6761   1.21799
-0.181124  0.654342   1.20898
-0.219485  0.671927   1.22473
-0.383954  0.625816   1.24112
-0.455663  0.590249   1.24777
 -0.5189 0.589774  1.27204
-0.502402  0.567954   1.25513
-0.557688  0.560718   1.27542
-0.601044  0.586881   1.30681
-0.677066   0.53979   1.32304
-0.721002  0.570046   1.35871
-0.884481  0.601699   1.46502
0.114386 0.912827  1.35989
0.0826198   0.86421   1.32526
0.0313965  0.889372   1.33977
-0.00213736    0.838857     1.30564
-0.119903  0.751724   1.25735
-0.240596  0.693486   1.24082
-0.290806  0.683526   1.24583
-0.343211  0.666997   1.25022
-0.434296  0.618419    1.2536
-0.495856  0.616602   1.27558
-0.547011   0.61908    1.2973
-0.630342  0.607712    1.3296
-0.676024  0.615003   1.35496
-0.794811  0.571659    1.4005
0.0877673  0.985653   1.40785
0.0383969  0.975112   1.39795
-0.0399477   0.860029    1.32012
-0.026003  0.900909   1.34698
-0.0798715   0.844848    1.31175
-0.0617484    0.80076    1.28302
-0.150436  0.758862   1.26472
-0.151324  0.800435    1.2903
-0.164628  0.735464    1.2526
-0.188773  0.689479   1.22944
-0.218889  0.722302   1.25321
-0.31058 0.675442  1.24643
-0.376865  0.682478   1.26825
-0.410664  0.659265   1.26651
-0.469691  0.633428   1.27388
-0.723065  0.643026   1.39249
-0.831793  0.647092    1.4533
-0.78686 0.616403  1.41431
0.114551  1.03955  1.44771
0.0283008   1.04776   1.44892
-0.0651873   0.937157    1.37315
-0.127364   0.86837   1.33106
-0.116691  0.814678   1.29537
-0.162739  0.853193   1.32482
-0.197022     0.736   1.25773
-0.254724  0.729589   1.26429
-0.400181  0.699734   1.28477
-0.442925  0.653106   1.27418
-0.534515  0.651745    1.3081
-0.690972  0.686185   1.39668
-0.586342  0.653274   1.33146
-0.643257  0.660714   1.36152
-0.0253388     1.0705    1.46526
-0.0185845   0.980108    1.40101
-0.0554451    1.02175    1.43144
-0.111776  0.909211    1.3568
-0.19928 0.817712  1.30714
-0.235274  0.790969    1.2968
-0.217368  0.762376   1.27635
-0.282834  0.725295   1.26763
-0.311396  0.716761   1.26946
-0.426711  0.700166   1.29342
-0.466691  0.696194   1.30531
-0.497176   0.69373   1.31503
-0.522839  0.682383   1.31908
-0.106696  0.980441   1.40469
-0.147105  0.936103   1.37843
-0.180324  0.917894   1.36965
-0.239869  0.863299   1.34298
-0.303377  0.791463   1.31148
 -0.3643 0.737083  1.29485
-0.401618  0.737408   1.30598
-0.444689  0.743258   1.32354
-0.483578  0.726225   1.32782
-0.533304  0.755265    1.3621
-0.55178 0.722705  1.35191
-0.579051  0.708927   1.35586
-0.197689    0.8699   1.34078
 -0.2348 0.901392   1.3675
-0.285777   0.87196   1.35731
-0.273602  0.834032   1.33104
-0.26629 0.795055  1.30524
-0.319858  0.758421   1.29591
-0.348391   0.75992   1.30405
-0.43505 0.774352  1.33752
-0.491573  0.760889   1.34942
-0.551078  0.792898   1.39029
-0.66192 0.755629  1.41919
-0.240416  0.948307   1.39969
-0.31328 0.998432  1.44845
-0.280574  0.937745   1.40061
-0.317092  0.835992    1.3418
-0.34567 0.800328  1.32707
-0.381063  0.783815   1.32669
-0.419894  0.840031   1.37294
-0.442579  0.893649   1.41397
-0.521545  0.817864   1.39482
-0.628404  0.781589    1.4169
-0.586928  0.772702   1.39386
-0.334659  0.966416   1.43113
-0.311719  0.914987   1.39169
-0.356071  0.888637   1.38532
-0.349779  0.917911   1.40252
-0.356573    0.8546   1.36368
-0.387164  0.845905   1.36628
-0.400422  0.900321   1.40445
-0.430252  0.926673   1.43075
-0.490473  0.932465    1.4537
-0.445296  0.841169   1.38177
-0.472142  0.806023   1.36863
-0.479859  0.851715   1.39965
-0.494208  0.900678    1.4349
-0.529285  0.902906   1.44871
-0.512766  0.846495    1.4082
-0.561655  0.904163   1.46136
-0.632398  0.880002   1.47468
-0.565616  0.840073   1.42358
-0.597313  0.881203   1.46082
-0.618616  0.818265    1.4331
-0.357277   1.01282   1.46786
-0.378932  0.946999   1.42872
-0.457474  0.985082    1.4766
-0.437225   1.00468   1.48377
-0.399022  0.976993   1.45421
