   0.139548 -0.00285754     1.01491
 0.0936506 -0.0354049    1.00974
-0.0103069 -0.0693624    1.00611
0.0476064  0.012882   1.00546
  0.221166 -0.0511314    1.02914
 -0.107965 -0.0388357    1.01015
 -0.105111 -0.0945427    1.01092
-0.00799636    0.031543     1.00201
0.0974197  -0.14252   1.01593
  0.278269 0.00725189    1.04173
-0.115033 0.0599547   1.01172
  -0.188233 -0.00991805     1.01976
-0.0700299  -0.172057    1.01851
0.301189 0.161657  1.05865
 0.310768 0.0754826   1.05338
0.217672 0.181536  1.04388
0.0801205  0.185503   1.02608
 0.219483 -0.163846   1.04159
  0.312333 -0.0897319    1.05419
  0.401742 -0.0356649    1.08183
-0.178285  0.141973   1.02849
 -0.190056 -0.0896347    1.02499
0.0674977 -0.229296   1.02973
0.149356 0.289176  1.05628
0.0168239  0.248482   1.03741
 0.164774 -0.195536   1.03599
 0.244481 -0.243722   1.05991
 0.321969 -0.198731   1.07114
 0.340727 -0.144904   1.06804
 0.473036 0.0425036   1.11289
-0.0755762   0.135092    1.01548
-0.244771 0.0724527   1.03723
-0.318537 0.0592888   1.05611
-0.122288 -0.244758    1.0389
-0.0141625   -0.22014    1.02623
0.453802 0.182131  1.11876
0.346091 0.276456  1.09823
-0.0848297   0.236076    1.03684
 0.360128 -0.250448   1.09628
 0.477133 -0.297675   1.14988
-0.163037   0.29391   1.05695
-0.280826  0.178448   1.05701
-0.415382 0.0690015    1.0873
 -0.357298 -0.0527957    1.06699
 -0.271445 -0.0914142    1.04116
-0.220292 -0.165207   1.03882
 0.114927 -0.266669   1.04253
0.40668 0.40375 1.15606
 0.11171 0.474603  1.11513
-0.0104105    0.40884    1.08696
-0.117462  0.377727   1.07757
0.391716 -0.32227  1.12511
 0.458584 -0.362023   1.15931
 0.499631 -0.227941   1.14436
 0.471426 -0.160594   1.11963
 0.501527 -0.088367   1.12444
0.601167 0.144661  1.18186
-0.261497  0.291037   1.08067
-0.325367  0.342357   1.11197
-0.383529  0.182093   1.09112
-0.478179 0.0227045   1.11141
 -0.31415 -0.168437   1.06381
-0.213848 -0.231701   1.04979
-0.139712 -0.318864   1.06005
-0.054621 -0.303031   1.04764
0.569791 0.419202  1.22907
0.525373 0.280145  1.17158
0.217469 0.388835  1.10048
0.308889 0.487615  1.16578
-0.144675  0.480982   1.12366
 0.287347 -0.324503   1.09064
 0.187462 -0.299295   1.06075
-0.424209  0.290759   1.12786
-0.493668  0.246403   1.14693
-0.471569  0.134331   1.11738
-0.566983  0.193394   1.16699
-0.574917 0.0171681   1.15481
-0.380719 -0.138046   1.08193
 -0.32269 -0.252018   1.08325
-0.219686 -0.310825   1.07137
-0.197169   0.57806   1.17481
-0.258072  0.440941   1.12514
-0.327126  0.545313   1.18743
 0.617677 -0.121539   1.18483
 0.621423 0.0136988   1.17925
0.749289 0.206726  1.27046
0.679903 0.385005  1.27343
-0.367844  0.467808   1.16548
-0.559483  0.426756   1.22702
-0.470393  0.371112   1.16897
-0.57541 0.112287  1.16309
 -0.485127 -0.0908287    1.11761
-0.367557 -0.333624   1.12098
-0.0933808  -0.383151    1.07631
0.0134787 -0.369111   1.06699
0.0751873 -0.342836   1.06044
0.640943  0.61012  1.33813
0.559268 0.539395  1.26854
-0.0736187   0.633713    1.19188
  0.20304 -0.344833   1.07738
 0.396144 -0.408539   1.15131
 0.518901 -0.481907    1.2265
 0.463332 -0.436123   1.18567
0.546929 -0.40178  1.20965
 0.594728 -0.378067   1.22581
  0.63996 -0.228842   1.21302
 0.80752 0.323496  1.33003
-0.469934  0.494034     1.213
-0.605803  0.301514   1.21287
-0.661458  0.168411   1.21394
-0.746898  0.115676   1.25696
-0.650126 0.0636641   1.19992
-0.781971 0.0517891    1.2745
-0.875297 0.0760654    1.3324
 -0.737598 -0.0544468    1.24951
-0.463437 -0.192532   1.12048
-0.386047 -0.236565   1.10046
-0.286755 -0.363427   1.10355
-0.0312864  -0.419596    1.08555
0.569106 0.756442  1.37807
0.059728  0.60436  1.17427
-0.343721  0.696719   1.26865
-0.403588  0.659499   1.26782
-0.521482  0.598004   1.27713
 0.280642 -0.380379    1.1068
 0.571525 -0.501833   1.25662
  0.61979 -0.334117   1.22514
-0.587649  0.538519   1.28064
-0.62182 0.387044    1.245
-0.702115  0.238793   1.24663
-0.821807  0.191553   1.31089
 -0.838354 -0.0222186    1.30988
 -0.657313 -0.0701868    1.20078
-0.569708 -0.109191   1.15826
-0.460307 -0.302843   1.14562
-0.333904  -0.45986   1.15047
-0.240371 -0.418464   1.11254
-0.149479 -0.432673   1.10099
 0.124425 -0.361652   1.07114
 0.174455 -0.397129   1.09095
0.424915 0.620387  1.25286
0.221772 0.635214  1.20852
-0.214622   0.73261   1.26083
-0.505824  0.748174   1.34919
0.220039 -0.41123  1.10472
 0.259454 -0.411395   1.11271
 0.339912 -0.389598   1.12589
 0.351566 -0.446579   1.15158
 0.487217 -0.530972   1.23333
 0.655172 -0.308354   1.23572
0.731778 -0.17298  1.25458
  0.772096 -0.0335518    1.26496
-0.669553   0.49522   1.30266
-0.873224  0.243159   1.35171
-0.928999  0.159195   1.37731
-0.997845  0.192529   1.42799
-0.828907 -0.126965   1.30776
-0.568118 -0.207924   1.17181
-0.545519 -0.325774   1.18726
-0.464086 -0.385647   1.17153
-0.402526 -0.456851   1.17158
-0.132056 -0.504976   1.12876
-0.0655501  -0.471296    1.10811
 0.117906 -0.413343   1.08928
 0.184376 -0.462207   1.11752
-0.0281456    0.78202    1.27442
-0.349296  0.864083   1.36818
-0.510038  0.844315   1.40576
-0.539735  0.670081   1.32058
 0.236017 -0.453937   1.12425
 0.290212 -0.454222   1.13705
 0.387192 -0.493078    1.1817
 0.530665 -0.592201   1.27841
 0.592914 -0.573444   1.29761
 0.639368 -0.485679   1.28303
   0.895367 -0.00704728      1.3453
 -0.6723 0.648971  1.37024
-0.774659  0.527609    1.3715
-0.728181  0.416834    1.3077
-0.892478  0.400864   1.40207
-0.834679  0.294702   1.33796
-0.72107 0.323465  1.27486
-0.741296 -0.192592   1.26298
-0.654505 -0.171123   1.21122
-0.529096 -0.434067   1.21406
-0.258436 -0.499699    1.1487
0.0264974 -0.470443   1.10568
  0.10614 -0.479512   1.11507
0.0763616 -0.442597    1.0967
 0.148789 -0.473856   1.11703
 0.136128 -0.445895   1.10441
0.334868 0.751704  1.29752
-0.01215 0.938682   1.3765
0.120718 0.862111  1.33604
-0.619925   0.73263   1.38811
-0.630307  0.814141   1.43717
 0.248892 -0.477915   1.13627
 0.354122 -0.513026   1.17959
 0.419044 -0.521347   1.20371
 0.542031 -0.661421   1.31687
 0.532345 -0.716927   1.34169
-0.726087  0.734295   1.43903
-0.742046  0.582086   1.37538
-0.787027  0.659599   1.43399
-0.811155  0.412862   1.35524
-0.967614  0.380685   1.44553
 -0.91298 -0.178279   1.36742
-0.619338 -0.292068   1.21502
-0.763401 -0.304253   1.29758
-0.696092 -0.372608   1.27492
-0.612371 -0.425794   1.25039
-0.520048 -0.494677     1.232
-0.193786 -0.541335   1.15576
-0.0940333    -0.5628    1.15203
-0.0373195  -0.579928    1.15688
-0.0133794  -0.517145    1.12677
 0.108588 -0.516346   1.13133
 0.159775 -0.499161   1.12918
 0.191044 -0.498017   1.13349
-0.242797  0.849167   1.33673
 0.214523 -0.498559   1.13807
 0.263366 -0.499201   1.14843
  0.31041 -0.500516   1.16087
 0.354633 -0.548346   1.19448
 0.389747 -0.568599   1.21476
0.466663 -0.60797  1.26028
   0.6494 -0.551417   1.31441
 0.682913 -0.468422   1.29902
-0.859167  0.486292   1.40586
-0.702067   -0.4963   1.32073
-0.401758  -0.52556   1.20115
-0.0682548   -0.66931    1.20653
 0.05894 -0.50936  1.12457
 0.186434 -0.519555   1.14233
0.373812 0.901786  1.40185
 0.258458 -0.524796    1.1586
   0.2905 -0.518382   1.16346
0.348027 -0.57213  1.20402
 0.441405 -0.574028   1.23509
 0.493137 -0.666262   1.29946
 0.582435 -0.673526   1.33949
  0.60613 -0.640637   1.33381
 0.651134 -0.615902   1.34382
 0.738924 -0.420457    1.3135
 0.761605 -0.308733    1.2951
-0.795082 -0.420333   1.34635
-0.625376 -0.550157   1.30335
-0.500576 -0.573621   1.25789
-0.304059 -0.572238   1.19304
 -0.36601 -0.622732    1.2353
-0.223308 -0.604825   1.19449
-0.316391  -0.64858   1.23731
0.00577203  -0.589136    1.16075
0.0438619     -0.55    1.1425
0.0966869 -0.555283   1.14853
 0.129962 -0.541707   1.14482
  0.15015 -0.525028   1.13951
 0.230755 -0.517952   1.14971
   0.2282 -0.533413   1.15617
 0.319823 -0.551921   1.18635
 0.475051 -0.720657   1.32132
 0.511497 -0.767938   1.36116
0.706644 -0.66702  1.39482
  0.76403 -0.639758   1.41263
 0.717216 -0.558845   1.35314
 0.770613 -0.482069    1.3531
-0.801442 -0.518503   1.38373
-0.697834 -0.619296   1.37113
  -0.4497 -0.622447   1.26229
-0.196409 -0.661909   1.21922
 0.029516 -0.610493   1.17217
 0.143661 -0.561041    1.1557
 0.176529 -0.538497   1.14948
 0.239784 -0.550244   1.16638
 0.297154 -0.574175   1.19095
 0.288588 -0.548735   1.17683
 0.321768 -0.603204   1.21152
0.308157 -0.59291   1.2028
 0.363345 -0.597613   1.22087
 0.448158 -0.648801   1.27399
 0.416408 -0.623943   1.25025
  0.46577 -0.822455   1.37616
  0.50763 -0.805222   1.38095
  0.66048 -0.693858   1.38497
 0.771831 -0.565242   1.38506
 0.843504 -0.521672   1.41001
 -0.58265 -0.629895   1.31968
-0.567464 -0.675214   1.33576
 -0.23102 -0.726212   1.25921
-0.13604 -0.68169  1.21915
-0.0720459  -0.733978    1.24331
0.00143762  -0.649478    1.19293
 0.116184 -0.586319   1.16534
 0.166952 -0.554607   1.15569
 0.190961 -0.554367   1.15928
 0.207277 -0.540826   1.15581
 0.262943 -0.552666   1.17249
 0.326609 -0.621559   1.22199
 0.380404 -0.621598    1.2379
 0.344731 -0.633357   1.23299
0.422321 -0.67239    1.277
 0.443113 -0.756749   1.33028
 0.435532 -0.808996   1.35814
 0.564022 -0.772584   1.38391
 0.599555 -0.767649   1.39634
 0.625535 -0.726609   1.38612
 0.884006 -0.581485   1.45664
-0.515204 -0.725503   1.34021
-0.335443 -0.723836   1.28206
-0.425172 -0.737936     1.316
-0.122544 -0.762855   1.26457
-0.0258951  -0.773835    1.26511
-0.00705761   -0.695858     1.21857
0.0765859 -0.602608   1.17023
 0.109309 -0.616781   1.18023
 0.144087 -0.590042   1.17012
 0.215182 -0.561016   1.16686
 0.241815 -0.566527   1.17459
 0.277457 -0.573682   1.18588
 0.269007 -0.588264   1.19102
  0.29068 -0.610143   1.20701
 0.312708 -0.635932    1.2257
 0.385805 -0.659182   1.25878
 0.424853 -0.722286   1.30512
0.419818 -0.88333  1.39928
 0.445442 -0.857095    1.3904
0.501308 -0.85297  1.40709
0.550998 -0.84755  1.42235
 0.576474 -0.818442   1.41565
 0.624946 -0.810756   1.43132
 0.672607 -0.799165   1.44678
0.700415 -0.76269  1.44033
-0.328925 -0.789666   1.31699
-0.155983  -0.83035   1.31029
 0.060542 -0.670183   1.20563
 0.134803 -0.632126   1.19081
 0.149738 -0.614175   1.18321
 0.169414 -0.574737   1.16584
 0.191143 -0.574184   1.16892
0.210268 -0.58031  1.17522
 0.230259 -0.589184   1.18335
 0.296672 -0.622693   1.21484
 0.345288 -0.660208   1.24711
 0.405144 -0.764282   1.32255
 0.398051 -0.826273   1.35741
 0.387657 -0.863374    1.3774
 0.413433 -0.933004   1.42903
 0.457704 -0.913756   1.42999
 0.491199 -0.891408   1.42699
 0.589361 -0.874866   1.45406
 0.741479 -0.774075   1.46626
-0.215483 -0.800533   1.29977
0.0301568 -0.757266   1.25503
0.0440393 -0.699897    1.2216
0.0938751 -0.667294   1.20613
  0.12049 -0.652475   1.20036
 0.168097 -0.601296   1.17902
 0.186574 -0.589344   1.17566
 0.217653 -0.598721   1.18577
 0.229087 -0.608863   1.19299
 0.249383 -0.586102   1.18564
  0.26096 -0.602938   1.19653
 0.275962 -0.607563   1.20225
 0.313939 -0.658167   1.23769
 0.374368 -0.686933   1.27013
  0.38512 -0.791486    1.3326
 0.361067 -0.905181   1.39678
 0.483377 -0.928859   1.44806
-0.627778 -0.790392   1.42569
-0.508188 -0.798152   1.37991
-0.251647 -0.858703   1.34394
-0.109357 -0.877263   1.33485
-0.00722492   -0.845237     1.30951
0.0350499  -0.87971   1.33285
 0.147925 -0.663066   1.20912
 0.161874 -0.633406   1.19478
 0.198685 -0.601817   1.18401
 0.241847 -0.609482   1.19588
 0.29037 -0.63327  1.21877
 0.277006 -0.634766   1.21644
 0.302355 -0.646862   1.22879
 0.393133 -0.720575   1.29391
 0.357614 -0.707516   1.27637
 0.359499 -0.743373   1.29708
 0.363272 -0.770757   1.31417
 0.329975 -0.786496   1.31464
 0.350924 -0.819036   1.33998
 0.321505 -0.877788   1.36909
  0.38951 -0.951175   1.43409
 0.442213 -0.943661   1.44479
 0.428037 -0.977319    1.4625
-0.308205 -0.873631   1.36552
-0.0321456  -0.907564    1.35122
0.0786126 -0.718874   1.23447
 0.137088 -0.686886   1.22111
 0.183887 -0.620932   1.19139
 0.198422 -0.626763   1.19683
0.250821 -0.62289  1.20457
  0.26659 -0.622339    1.2077
 0.302533 -0.678074   1.24561
 0.337729 -0.684877   1.25835
 0.331171 -0.727648   1.28059
  0.31062 -0.747761   1.28692
 0.351714 -0.859479   1.36487
 0.365202 -0.968766   1.43958
0.405404 -1.01472  1.48135
-0.402481 -0.836292   1.36581
-0.0803661  -0.955053    1.38531
0.0444627 -0.968078   1.39321
 0.059954 -0.917247   1.35894
0.0739467  -0.83679   1.30644
0.0896898 -0.779105   1.27114
0.0556326 -0.777015   1.26806
  0.11154 -0.708215   1.23098
 0.170269 -0.670872   1.21629
 0.183841 -0.660457   1.21254
0.208758 -0.62414  1.19716
 0.219143 -0.628177   1.20115
 0.259912 -0.639926   1.21539
 0.279636 -0.652451   1.22638
 0.293047 -0.662935   1.23513
 0.320028 -0.696298   1.26001
 0.304334 -0.719937   1.26954
 0.311881 -0.796343    1.3159
-0.163078 -0.947316   1.38829
 0.121825 -0.941312   1.37926
 0.136662 -0.732991   1.24812
 0.178136 -0.698312   1.23275
 0.187568 -0.644584   1.20452
 0.211498 -0.648488   1.21061
 0.237567 -0.636262   1.20886
 0.246827 -0.651505    1.2188
 0.268405 -0.652186   1.22373
 0.286752 -0.704389   1.25646
 0.290686 -0.772602   1.29704
 0.284954 -0.810932   1.31879
 0.291917 -0.845503   1.34219
 0.299247 -0.915354   1.38877
0.352157 -1.01067  1.46492
-0.382093 -0.919781   1.41251
-0.259591 -0.952456   1.40714
 0.109689 -0.998419   1.41752
0.158315  -0.9755  1.40626
0.0960813 -0.874403   1.33221
  0.12173 -0.836393    1.3096
 0.146961 -0.765789   1.26876
  0.17031 -0.728165   1.24905
 0.204136 -0.721116   1.24982
 0.205687 -0.697598   1.23663
  0.20422 -0.665592   1.21859
 0.226246 -0.645675   1.21169
  0.28357 -0.680066   1.24221
 0.268338 -0.700628   1.25026
 0.276711 -0.729202   1.26841
 0.264796 -0.794077   1.30449
 0.266965 -0.864114   1.34878
 0.305914 -0.964293   1.42261
-0.465351 -0.894334    1.4206
-0.0420845    -1.0189    1.42851
0.015995 -1.01653  1.42635
 0.175689 -0.917119   1.36966
 0.195962 -0.825785   1.31223
 0.163987 -0.794293   1.28787
 0.204111 -0.790251   1.29144
 0.217786 -0.679196   1.22843
  0.23526 -0.661726   1.22205
 0.252913 -0.690637   1.24144
 0.260765 -0.668061   1.23067
 0.258792 -0.737447   1.26923
 0.253668 -0.765535   1.28512
0.0689449  -1.05069    1.4524
0.131892 -1.03179  1.44347
0.17968 -1.0306 1.44749
 0.160339 -0.874586   1.33879
 0.216891 -0.943621   1.39287
 0.151398 -0.821416   1.30319
 0.203365 -0.755126   1.26985
 0.233179 -0.685662   1.23481
 0.24545 -0.71321  1.25273
 0.233508 -0.841191   1.32755
0.257465 -0.92732   1.3881
0.282126 -1.01735  1.45422
0.222806 -1.04169  1.46149
 0.245852 -0.993733    1.4311
 0.202998 -0.866293   1.33869
 0.234315 -0.795872   1.29977
 0.227164 -0.748505    1.2697
 0.229468 -0.707663   1.24652
 0.235364 -0.899699   1.36582
